0.8492845505, 0.8340795437, 0.8160566317, 0.7972714678, 0.7820826358, 0.7708280606, 0.7603336376, 0.7547048601, 0.7547077154, 0.7555635478, 0.7552598402, 0.7543388488, 0.7523995212, 0.7495430378, 0.7456219813, 0.7410135910, 0.7347653930, 0.7278017254, 0.7221919520, 0.7142094568, 0.7071124149, 0.7043142528, 0.6994191642, 0.6936562477, 0.6830870302, 0.6708112417, 0.6613294024, 0.6535414740, 0.6449659667, 0.6357129391, 0.6284282245, 0.6198033443, 0.6043119348, 0.5882235768, 0.5749156454, 0.5610710255, 0.5458282882, 0.5287603472, 0.5140093444, 0.5006584977, 0.4884986957, 0.4754806320, 0.4635836878, 0.4521191891, 0.4381653372, 0.4250779239, 0.4130949064, 0.4025309162, 0.3887061314, 0.3723178042, 0.3569311051, 0.3453158433, 0.3361960630, 0.3264575614, 0.3159802278, 0.3062708153, 0.2956412753, 0.2810184135, 0.2644761679, 0.2471837944, 0.2339466184, 0.2224360060, 0.2131955752, 0.2011809312, 0.1878229801, 0.1731385858, 0.1652776987, 0.1610230104, 0.1532390808, 0.1431943390, 0.1294129936, 0.1107585678, 0.0896011090, 0.0708784994, 0.0479197780, 0.0269687160, 0.0121630112,-0.0010681485,-0.0145780769,-0.0293442977,-0.0455241400,-0.0651217853,-0.0896997003,-0.1152393222,-0.1376060749,-0.1559987921,-0.1719076699,-0.1864437695,-0.2020479741,-0.2184490577,-0.2340545937,-0.2481411202,-0.2605554011,-0.2773324979,-0.2935024198,-0.3077037243,-0.3207528547,-0.3323930099,-0.3439244451,-0.3582472826,-0.3728649092,-0.3886796610,-0.4046149181,-0.4205366368,-0.4387399591,-0.4600818036,-0.4817053244,-0.5026516638,-0.5256458120,-0.5474268776,-0.5667181557,-0.5811171475,-0.5963700079,-0.6102857802,-0.6239692294,-0.6402306004,-0.6539519501,-0.6662277831,-0.6815947189,-0.6963138797,-0.7092035736,-0.7208557219,-0.7327239070,-0.7425234446,-0.7518631490,-0.7638007561,-0.7753694372,-0.7887154190,-0.8052163669,-0.8221574819,-0.8421297427,-0.8593538068,-0.8708491120,-0.8810624221,-0.8869648707,-0.8917192568,-0.8974733608,-0.8997909262,-0.9013890683,-0.8997285765,-0.8967263204,-0.8966241524,-0.8956015306,-0.8898433471,-0.8872926691,-0.8839106097,-0.8765485695,-0.8646594194,-0.8478276553,-0.8288092088,-0.8080160660,-0.7886549207,-0.7687333648,-0.7466860864,-0.7215857599,-0.6948550018,-0.6691691267,-0.6449134363,-0.6196355448,-0.5908176167,-0.5614810924,-0.5373447910,-0.5116000225,-0.4827560326,-0.4554592431,-0.4304220678,-0.4077753013,-0.3875222147,-0.3668637283,-0.3460166722,-0.3237991304,-0.2981309838,-0.2734257130,-0.2509051851,-0.2312259032,-0.2094285081,-0.1877347998,-0.1657940007,-0.1431046352,-0.1148746896,-0.0849340887,-0.0550920365,-0.0264826088, 0.0037522138, 0.0326130660, 0.0632826630, 0.0907896915, 0.1179593864, 0.1479886963, 0.1795046446, 0.2105741743, 0.2394451028, 0.2699133633, 0.3001522993, 0.3247911679, 0.3477931312, 0.3692354907, 0.3956773902, 0.4229454211, 0.4529558144, 0.4857828964, 0.5172485452, 0.5466114718, 0.5710123175, 0.5932980366, 0.6161490196, 0.6406354554, 0.6683885635, 0.6982514937, 0.7230811034, 0.7435391129, 0.7622472248, 0.7810782776
0.8590033305, 0.8443049210, 0.8248171035, 0.8066630003, 0.7919469383, 0.7794604350, 0.7662545223, 0.7560674830, 0.7515491075, 0.7497449252, 0.7485740715, 0.7448084548, 0.7436145206, 0.7423049129, 0.7409731656, 0.7340107947, 0.7261353664, 0.7163843141, 0.7103871395, 0.7015562127, 0.6942364264, 0.6902892523, 0.6839038907, 0.6760590363, 0.6656809384, 0.6557540039, 0.6459815905, 0.6377979825, 0.6294015257, 0.6179564205, 0.6105268777, 0.6026229291, 0.5904401038, 0.5771483243, 0.5647794349, 0.5516472087, 0.5348543193, 0.5182175309, 0.5007950902, 0.4864223917, 0.4731619330, 0.4602783251, 0.4460755395, 0.4330021653, 0.4208980286, 0.4078853976, 0.3971521020, 0.3870094894, 0.3719122511, 0.3549278966, 0.3397482502, 0.3287193946, 0.3207384295, 0.3128335759, 0.3039815794, 0.2942616299, 0.2818114058, 0.2684670852, 0.2547887891, 0.2423973111, 0.2309812222, 0.2164261727, 0.2049738565, 0.1922950441, 0.1817568393, 0.1706364459, 0.1633028916, 0.1563836127, 0.1504271216, 0.1409051352, 0.1245611560, 0.1048804841, 0.0866594136, 0.0694865778, 0.0503202056, 0.0309827639, 0.0131561093,-0.0005052098,-0.0142540674,-0.0284409895,-0.0438752161,-0.0639087043,-0.0885394836,-0.1133540913,-0.1366059854,-0.1551633677,-0.1718688191,-0.1872453216,-0.2044291652,-0.2196770251,-0.2365581814,-0.2506803093,-0.2634306375,-0.2776412210,-0.2908229431,-0.3057836541,-0.3173034848,-0.3294756659,-0.3442663167,-0.3596686563,-0.3737578397,-0.3868280314,-0.4016950650,-0.4204556787,-0.4398927402,-0.4592242317,-0.4794420495,-0.5004645154,-0.5234037587,-0.5453297430,-0.5633294208,-0.5759058048,-0.5890431481,-0.6043264633,-0.6224300161,-0.6391887575,-0.6533714212,-0.6668289248,-0.6822426767,-0.6949741288,-0.7084096746,-0.7193923257,-0.7327593835,-0.7445494046,-0.7538217654,-0.7664544183,-0.7774822926,-0.7900290857,-0.8076205565,-0.8250500977,-0.8416445873,-0.8594366351,-0.8723644608,-0.8835349257,-0.8911727309,-0.8987996371,-0.9071742605,-0.9097968746,-0.9101254907,-0.9069359661,-0.9031764970,-0.9007449900,-0.8977842188,-0.8912519282,-0.8866237085,-0.8799316140,-0.8729355111,-0.8623623780,-0.8488798290,-0.8311237172,-0.8099858910,-0.7883743553,-0.7674659282,-0.7449715995,-0.7193919211,-0.6917120430,-0.6668563365,-0.6435707897,-0.6181976515,-0.5886831059,-0.5613552216,-0.5369640082,-0.5074512225,-0.4791691779,-0.4536036697,-0.4293490094,-0.4055507847,-0.3832669186,-0.3605318539,-0.3383935837,-0.3156082511,-0.2889640965,-0.2658168142,-0.2417383949,-0.2212713931,-0.2024435916,-0.1798855396,-0.1566729402,-0.1323966551,-0.1041370183,-0.0745077500,-0.0453779580,-0.0177194305, 0.0114544067, 0.0418359829, 0.0704302001, 0.0984681186, 0.1266862431, 0.1599783775, 0.1923293421, 0.2237804000, 0.2503319089, 0.2773341219, 0.3049254164, 0.3296425942, 0.3517753546, 0.3739925071, 0.3995405021, 0.4256427874, 0.4560601787, 0.4882931358, 0.5194252339, 0.5491231359, 0.5727137129, 0.5916473648, 0.6152320394, 0.6405711971, 0.6686025958, 0.6970046907, 0.7215606071, 0.7434250785, 0.7644196538, 0.7830312348
0.8661676517, 0.8515248236, 0.8340726347, 0.8190686774, 0.8039922551, 0.7887634112, 0.7744142580, 0.7625736867, 0.7521243383, 0.7449278637, 0.7388450327, 0.7338737540, 0.7341195483, 0.7335190880, 0.7320114340, 0.7260941721, 0.7171481959, 0.7059917881, 0.6967780075, 0.6874328394, 0.6792590166, 0.6742024387, 0.6667290935, 0.6569663024, 0.6468893636, 0.6375752189, 0.6287419196, 0.6217338937, 0.6126738859, 0.6020029813, 0.5941649107, 0.5864136674, 0.5746420377, 0.5623491533, 0.5509306676, 0.5379288935, 0.5230117597, 0.5070431539, 0.4900422189, 0.4757997930, 0.4610917978, 0.4475083404, 0.4300836576, 0.4163388265, 0.4046050745, 0.3934049177, 0.3813097784, 0.3683027201, 0.3546466229, 0.3380607626, 0.3228114482, 0.3109095520, 0.3033358852, 0.2931161211, 0.2847624902, 0.2759154871, 0.2635954251, 0.2520271322, 0.2439198580, 0.2353570053, 0.2253361142, 0.2103714662, 0.1962058722, 0.1844453589, 0.1763749350, 0.1655346473, 0.1562746016, 0.1479988697, 0.1426926651, 0.1328385623, 0.1184241342, 0.1012491774, 0.0847675852, 0.0685056175, 0.0516213591, 0.0329643401, 0.0152225047, 0.0004919489,-0.0117455981,-0.0268351113,-0.0449747948,-0.0657918761,-0.0891294508,-0.1138540793,-0.1370203388,-0.1567330704,-0.1720334077,-0.1886243116,-0.2068664832,-0.2224019598,-0.2381251408,-0.2526605432,-0.2659271000,-0.2789248846,-0.2898187248,-0.3046460785,-0.3165479911,-0.3293998427,-0.3469809838,-0.3638191045,-0.3771384908,-0.3888582055,-0.4012101311,-0.4190322762,-0.4386259638,-0.4567949672,-0.4760005733,-0.4969536321,-0.5205031441,-0.5433464046,-0.5594784039,-0.5705282849,-0.5836627222,-0.6005089071,-0.6193891793,-0.6375899259,-0.6538660150,-0.6659769608,-0.6780777980,-0.6895418166,-0.7033180290,-0.7151655836,-0.7286484476,-0.7408694137,-0.7515781458,-0.7657531227,-0.7795464205,-0.7942196754,-0.8117322581,-0.8267086517,-0.8424424675,-0.8585297940,-0.8725105714,-0.8846537575,-0.8948500540,-0.9049532908,-0.9117066436,-0.9164987977,-0.9181919782,-0.9135120344,-0.9098380534,-0.9050880421,-0.9004430458,-0.8916417352,-0.8840790166,-0.8751531012,-0.8672354961,-0.8574516407,-0.8447052078,-0.8288278753,-0.8096520615,-0.7894054212,-0.7676570526,-0.7431746329,-0.7168827985,-0.6910757826,-0.6679420809,-0.6440701501,-0.6189150887,-0.5891666544,-0.5607774868,-0.5359047338,-0.5094617186,-0.4826802686,-0.4567810978,-0.4316929426,-0.4065472235,-0.3822126977,-0.3593148322,-0.3364749519,-0.3094772620,-0.2844840034,-0.2599313595,-0.2358961846,-0.2145983054,-0.1971927275,-0.1731258491,-0.1466296640,-0.1198467517,-0.0930489225,-0.0645207035,-0.0352513325,-0.0074858698, 0.0223131787, 0.0508922142, 0.0767611765, 0.1038113685, 0.1334751523, 0.1674782288, 0.2029495030, 0.2330171816, 0.2584111850, 0.2839792521, 0.3101035979, 0.3349585907, 0.3575029576, 0.3812542701, 0.4052108514, 0.4296642616, 0.4603110308, 0.4911943949, 0.5212627974, 0.5481474030, 0.5704619109, 0.5921561173, 0.6172807609, 0.6450835787, 0.6706923325, 0.6965630338, 0.7214928040, 0.7445683579, 0.7677791647, 0.7887669487
0.8719201556, 0.8570399268, 0.8424011726, 0.8276141103, 0.8123300208, 0.7960992899, 0.7816527125, 0.7674568944, 0.7524809963, 0.7402732146, 0.7307410765, 0.7249164505, 0.7220166947, 0.7199204776, 0.7189387411, 0.7128286773, 0.7025675954, 0.6925919105, 0.6823541507, 0.6712444666, 0.6640894792, 0.6581223330, 0.6493919819, 0.6383040630, 0.6283540084, 0.6189370737, 0.6111427505, 0.6062340428, 0.5975179042, 0.5876392009, 0.5793360526, 0.5717069877, 0.5606082394, 0.5468879732, 0.5358441030, 0.5232376370, 0.5083297732, 0.4946867223, 0.4790285972, 0.4633174777, 0.4475561492, 0.4307796625, 0.4142621050, 0.3993745816, 0.3876536839, 0.3768059976, 0.3627797851, 0.3484850245, 0.3367107352, 0.3218733170, 0.3089081219, 0.2968998342, 0.2851879450, 0.2722368227, 0.2638350884, 0.2574260039, 0.2467002224, 0.2379722278, 0.2323800873, 0.2248460949, 0.2153998418, 0.2032411274, 0.1879005865, 0.1765948848, 0.1679825520, 0.1569253382, 0.1457641394, 0.1391033011, 0.1332985454, 0.1229108319, 0.1125784401, 0.0983844955, 0.0823864315, 0.0663407683, 0.0507425423, 0.0340987344, 0.0188848704, 0.0048151204,-0.0093177030,-0.0252468142,-0.0450585605,-0.0674503122,-0.0897540214,-0.1145118275,-0.1391480631,-0.1595892207,-0.1767590561,-0.1925738308,-0.2070518188,-0.2209676375,-0.2377860768,-0.2546231998,-0.2699762236,-0.2832284820,-0.2935707818,-0.3066028124,-0.3196785799,-0.3334418491,-0.3504464531,-0.3669368102,-0.3812897462,-0.3933295159,-0.4055150243,-0.4210250997,-0.4399675133,-0.4563911759,-0.4748665592,-0.4956586079,-0.5184300342,-0.5406862459,-0.5561692431,-0.5686897121,-0.5818946425,-0.5987765708,-0.6168074197,-0.6337737766,-0.6497102676,-0.6645706539,-0.6744367961,-0.6831930679,-0.6941836756,-0.7050303001,-0.7199123112,-0.7341891997,-0.7479284823,-0.7619709179,-0.7777267964,-0.7959034822,-0.8131838446,-0.8282872337,-0.8430656610,-0.8573498044,-0.8734351908,-0.8860141651,-0.8985990582,-0.9099376143,-0.9174706651,-0.9243781806,-0.9267432626,-0.9230073058,-0.9178330665,-0.9104274437,-0.9013765996,-0.8898206720,-0.8781565804,-0.8684215995,-0.8614832402,-0.8508727077,-0.8392364164,-0.8239655746,-0.8076898044,-0.7880864208,-0.7650201976,-0.7418313921,-0.7155958859,-0.6909208931,-0.6690839035,-0.6443134455,-0.6203177247,-0.5930412671,-0.5650064733,-0.5396445770,-0.5156068781,-0.4913116359,-0.4655224426,-0.4357691111,-0.4087114040,-0.3826185896,-0.3556033001,-0.3301460820,-0.3054306745,-0.2827652038,-0.2558562690,-0.2306314598,-0.2097947797,-0.1877972795,-0.1632429840,-0.1383163430,-0.1103959760,-0.0824837584,-0.0547578013,-0.0261472262, 0.0031971874, 0.0321977574, 0.0607370608, 0.0863698849, 0.1112439513, 0.1404794736, 0.1735117325, 0.2079764518, 0.2371399573, 0.2630137508, 0.2890539847, 0.3148780789, 0.3403466962, 0.3641655694, 0.3869532126, 0.4103042850, 0.4364216587, 0.4659989113, 0.4954334321, 0.5244672250, 0.5479703461, 0.5711891298, 0.5981552893, 0.6238454448, 0.6485080366, 0.6704622762, 0.6949130220, 0.7226352932, 0.7474682910, 0.7720282385, 0.7933948530
0.8770016325, 0.8628642022, 0.8476842646, 0.8339663675, 0.8168489731, 0.8003404426, 0.7845046900, 0.7689040110, 0.7530000036, 0.7369325354, 0.7246693113, 0.7177867532, 0.7138574098, 0.7110479077, 0.7062608186, 0.6974084855, 0.6871127544, 0.6760538446, 0.6667597627, 0.6555100763, 0.6465167593, 0.6377841617, 0.6286821145, 0.6190295619, 0.6101767559, 0.6034128968, 0.5949979126, 0.5876014727, 0.5807969214, 0.5714136945, 0.5631811695, 0.5569583708, 0.5467257075, 0.5319824614, 0.5189776450, 0.5075031675, 0.4930553397, 0.4812502213, 0.4653228845, 0.4486468963, 0.4316572017, 0.4143449185, 0.3982579635, 0.3837095752, 0.3711548231, 0.3585504159, 0.3427266161, 0.3287368566, 0.3187062371, 0.3069948427, 0.2949349664, 0.2823630276, 0.2682524944, 0.2566376090, 0.2478136330, 0.2389886091, 0.2332564178, 0.2279744192, 0.2236435473, 0.2133496563, 0.2041934238, 0.1944225473, 0.1791132246, 0.1679443386, 0.1578357765, 0.1472447343, 0.1388646966, 0.1324100119, 0.1261206390, 0.1178711872, 0.1086209320, 0.0958952326, 0.0811482555, 0.0644859275, 0.0477281119, 0.0325370491, 0.0190395854, 0.0032602791,-0.0123241029,-0.0271777252,-0.0441024948,-0.0674605185,-0.0920457256,-0.1154132425,-0.1407309366,-0.1627789139,-0.1806793439,-0.1971137437,-0.2113930189,-0.2242021627,-0.2414250363,-0.2589039728,-0.2738394716,-0.2850973382,-0.2974828600,-0.3113762216,-0.3235825418,-0.3359396654,-0.3519381699,-0.3687188719,-0.3830144326,-0.3966050642,-0.4097589302,-0.4238718216,-0.4414425081,-0.4569696500,-0.4762342706,-0.4982522281,-0.5209034078,-0.5394490141,-0.5552474686,-0.5690968437,-0.5803627719,-0.5945351056,-0.6102670961,-0.6280980448,-0.6443187373,-0.6590539834,-0.6675272754,-0.6751758459,-0.6863704509,-0.6981397795,-0.7116146832,-0.7313391761,-0.7464737320,-0.7588881301,-0.7763840971,-0.7944413888,-0.8129900890,-0.8297290245,-0.8465008761,-0.8630600610,-0.8789087390,-0.8925233737,-0.9050628715,-0.9154723331,-0.9267086281,-0.9350265516,-0.9385465768,-0.9352922986,-0.9257367243,-0.9144039489,-0.9007156610,-0.8869606864,-0.8734851079,-0.8623461136,-0.8554218226,-0.8450768124,-0.8341155879,-0.8175991591,-0.8012111115,-0.7834393464,-0.7632159062,-0.7411554123,-0.7159970401,-0.6911169635,-0.6687128413,-0.6455433346,-0.6211806574,-0.5970855808,-0.5700381096,-0.5442860534,-0.5215431400,-0.4984160332,-0.4703191364,-0.4381372648,-0.4087902126,-0.3820654625,-0.3545441380,-0.3269094632,-0.3032349331,-0.2798747081,-0.2547245681,-0.2290205430,-0.2042584512,-0.1805346800,-0.1576981088,-0.1321850749,-0.1034645150,-0.0737088111,-0.0439225736,-0.0139312414, 0.0164755232, 0.0439982878, 0.0708728283, 0.0979605071, 0.1215915405, 0.1476503016, 0.1779535638, 0.2097632802, 0.2388931494, 0.2672451711, 0.2923416971, 0.3169691977, 0.3398715017, 0.3644675211, 0.3888207830, 0.4147765876, 0.4429385941, 0.4708134842, 0.4994241413, 0.5272089555, 0.5526255767, 0.5794942130, 0.6069358048, 0.6326993299, 0.6554630361, 0.6780081580, 0.7011993574, 0.7261185498, 0.7508805063, 0.7755065516, 0.7978363806
0.8805221831, 0.8674419207, 0.8513662541, 0.8369032928, 0.8210119102, 0.8028755268, 0.7860933994, 0.7704631832, 0.7559899499, 0.7390554205, 0.7238976350, 0.7145013625, 0.7088811813, 0.7050142229, 0.6970229594, 0.6869148075, 0.6765899289, 0.6629894242, 0.6506963046, 0.6384584978, 0.6270580428, 0.6171411502, 0.6084875410, 0.5989781110, 0.5905620633, 0.5853883546, 0.5753512620, 0.5671470084, 0.5602960444, 0.5521073822, 0.5437953059, 0.5382030810, 0.5286186796, 0.5136748430, 0.5020658816, 0.4915180452, 0.4771223468, 0.4640454504, 0.4479542199, 0.4307058887, 0.4139330855, 0.3999945543, 0.3848601699, 0.3690829375, 0.3555544853, 0.3413880091, 0.3274821565, 0.3120529685, 0.3004418287, 0.2912212310, 0.2792919070, 0.2674626948, 0.2554668809, 0.2460361524, 0.2355922979, 0.2267833289, 0.2223735491, 0.2192364857, 0.2117962682, 0.1993965287, 0.1900073493, 0.1821532524, 0.1681477017, 0.1569946236, 0.1463292608, 0.1374227030, 0.1313052959, 0.1251644611, 0.1218236943, 0.1157418597, 0.1060824100, 0.0935237324, 0.0799969597, 0.0639344488, 0.0490785774, 0.0333602261, 0.0176122293,-0.0001548176,-0.0168437193,-0.0311573559,-0.0476947859,-0.0681983600,-0.0906864104,-0.1154585933,-0.1400789255,-0.1646736181,-0.1838753369,-0.2013653889,-0.2149922117,-0.2279241850,-0.2448605290,-0.2639891720,-0.2786631108,-0.2902680423,-0.3020588323,-0.3138690455,-0.3249453541,-0.3373626036,-0.3527435301,-0.3689494096,-0.3823415825,-0.3982105296,-0.4120481374,-0.4265776354,-0.4446284208,-0.4612389569,-0.4804401829,-0.5017437559,-0.5252912738,-0.5428684410,-0.5583790438,-0.5708700537,-0.5837292060,-0.5953981576,-0.6079996979,-0.6223925257,-0.6361715003,-0.6496604711,-0.6579007942,-0.6667251245,-0.6807394159,-0.6958597343,-0.7096503375,-0.7278293805,-0.7444601380,-0.7585980462,-0.7762970559,-0.7951188177,-0.8152511403,-0.8330903995,-0.8509387910,-0.8667864997,-0.8833652273,-0.8973562872,-0.9103944454,-0.9246052719,-0.9359547830,-0.9441349499,-0.9507155935,-0.9445903764,-0.9336136291,-0.9196179858,-0.9033997215,-0.8878820849,-0.8758494379,-0.8615871155,-0.8490657940,-0.8380085157,-0.8278104367,-0.8130412431,-0.7968860923,-0.7829034240,-0.7653133034,-0.7424267339,-0.7163106497,-0.6932169869,-0.6717287602,-0.6494038390,-0.6232784866,-0.5974416930,-0.5724150117,-0.5456390738,-0.5210345545,-0.4970357364,-0.4695107481,-0.4386372748,-0.4083777873,-0.3800348715,-0.3540095076,-0.3266964160,-0.3027787653,-0.2815717213,-0.2566511983,-0.2287656305,-0.2027548289,-0.1796990331,-0.1558749429,-0.1281273404,-0.0966971933,-0.0659519948,-0.0360915454,-0.0043093509, 0.0265422950, 0.0552405131, 0.0849754869, 0.1106503603, 0.1329859611, 0.1559675489, 0.1816986045, 0.2115384260, 0.2386798162, 0.2654051671, 0.2903530628, 0.3121972764, 0.3342919278, 0.3600090576, 0.3853353656, 0.4148617571, 0.4456169059, 0.4726970705, 0.5015268241, 0.5322843064, 0.5611649804, 0.5896434179, 0.6190092719, 0.6448338668, 0.6686162070, 0.6907515046, 0.7104899332, 0.7332647792, 0.7564907110, 0.7818593443, 0.8011366783
0.8828453839, 0.8699722828, 0.8555308983, 0.8396101859, 0.8236789181, 0.8057271454, 0.7897212046, 0.7729273987, 0.7590833118, 0.7439042531, 0.7275993632, 0.7143226111, 0.7049341860, 0.6995740221, 0.6881305013, 0.6772600963, 0.6665851815, 0.6525017009, 0.6375764503, 0.6223225880, 0.6103815671, 0.6006460873, 0.5918779003, 0.5811926485, 0.5747583514, 0.5683959345, 0.5575173781, 0.5495742462, 0.5410637097, 0.5315589939, 0.5235542015, 0.5179686333, 0.5110144299, 0.4973760244, 0.4859841255, 0.4775473430, 0.4622048448, 0.4483081797, 0.4312206682, 0.4127539096, 0.3956118671, 0.3809532879, 0.3674460946, 0.3544521739, 0.3406006642, 0.3270466020, 0.3132538223, 0.2985800914, 0.2854503037, 0.2751485258, 0.2647330525, 0.2518160856, 0.2413057148, 0.2335962307, 0.2260202194, 0.2175458755, 0.2102201360, 0.2048329817, 0.1961945534, 0.1848779439, 0.1758857941, 0.1689489465, 0.1581229721, 0.1458598977, 0.1360443500, 0.1267802799, 0.1214953316, 0.1173588926, 0.1167605946, 0.1122748526, 0.1011687533, 0.0883880029, 0.0758774465, 0.0634742864, 0.0492543569, 0.0325778888, 0.0151435600,-0.0022506548,-0.0182217641,-0.0317123152,-0.0499555908,-0.0701796529,-0.0918694150,-0.1170410166,-0.1410332061,-0.1652405542,-0.1854799684,-0.2018109186,-0.2145697144,-0.2295541270,-0.2457471325,-0.2635487524,-0.2787923937,-0.2896535464,-0.2999725584,-0.3099103107,-0.3216480479,-0.3364658298,-0.3525619105,-0.3678908960,-0.3815508382,-0.3972364511,-0.4125266767,-0.4304571540,-0.4505837794,-0.4678264167,-0.4876986258,-0.5100492533,-0.5304872525,-0.5468602634,-0.5620212517,-0.5751490105,-0.5871365967,-0.5974923462,-0.6066891268,-0.6171123390,-0.6279048934,-0.6396621394,-0.6502428479,-0.6603459853,-0.6770921652,-0.6950744360,-0.7094754520,-0.7266343296,-0.7436571648,-0.7603551069,-0.7795957106,-0.7982290437,-0.8180328003,-0.8363377754,-0.8528323982,-0.8689769094,-0.8862249368,-0.8998354158,-0.9129933099,-0.9290523670,-0.9427502673,-0.9545662630,-0.9588795808,-0.9518845772,-0.9393514212,-0.9226282216,-0.9067879433,-0.8939105252,-0.8794631249,-0.8632791750,-0.8492221392,-0.8356767958,-0.8241000348,-0.8116254149,-0.7974355117,-0.7833414268,-0.7658648530,-0.7439572907,-0.7192240308,-0.6966718508,-0.6742413124,-0.6517775283,-0.6242413333,-0.5982480666,-0.5733307013,-0.5465537360,-0.5206102183,-0.4954487298,-0.4662283179,-0.4380242261,-0.4087563877,-0.3797151744,-0.3523662329,-0.3274613543,-0.3043028915,-0.2826599604,-0.2576596271,-0.2294524714,-0.2037544073,-0.1792235060,-0.1532114870,-0.1228556430,-0.0914786014,-0.0596153227,-0.0289395026, 0.0022113989, 0.0339088509, 0.0634276039, 0.0939943743, 0.1212820531, 0.1425848544, 0.1631211083, 0.1869583110, 0.2130453512, 0.2384450267, 0.2643303064, 0.2850981089, 0.3046029935, 0.3294200425, 0.3563048387, 0.3831417627, 0.4133699858, 0.4463278923, 0.4754007018, 0.5054943215, 0.5377983100, 0.5702885854, 0.5999695477, 0.6306743747, 0.6608680943, 0.6850168375, 0.7033962321, 0.7216304945, 0.7435253067, 0.7658706027, 0.7879365330, 0.8044335346
0.8840156615, 0.8722163813, 0.8595762758, 0.8451364515, 0.8285356017, 0.8133145289, 0.7961499539, 0.7785477458, 0.7635745779, 0.7484246362, 0.7300222244, 0.7146914111, 0.7038518758, 0.6922599812, 0.6785502395, 0.6673078910, 0.6554903817, 0.6422985561, 0.6262360760, 0.6102365586, 0.5980743261, 0.5874870086, 0.5782902149, 0.5694213922, 0.5613123726, 0.5513436132, 0.5395119095, 0.5317272611, 0.5220882119, 0.5123986049, 0.5040713190, 0.4991854997, 0.4920236585, 0.4812623269, 0.4707678352, 0.4619714315, 0.4461585853, 0.4297949756, 0.4128355593, 0.3929744729, 0.3779947314, 0.3655106451, 0.3525685370, 0.3407858213, 0.3261974831, 0.3132773632, 0.2988109273, 0.2832557309, 0.2706081689, 0.2604764009, 0.2503681083, 0.2385144540, 0.2300089741, 0.2231917825, 0.2140279653, 0.2049709600, 0.1977317211, 0.1903524967, 0.1802902842, 0.1693918670, 0.1608751948, 0.1550755125, 0.1461645685, 0.1344189986, 0.1250334758, 0.1182429380, 0.1136253623, 0.1110562463, 0.1094764235, 0.1041252529, 0.0936309368, 0.0819454776, 0.0708464235, 0.0602338194, 0.0462047419, 0.0320879226, 0.0174409357,-0.0013813980,-0.0161953206,-0.0311510507,-0.0517562360,-0.0722082969,-0.0956495268,-0.1183820540,-0.1424659919,-0.1648996840,-0.1835685203,-0.1987180200,-0.2135475008,-0.2279940776,-0.2411460599,-0.2579135287,-0.2726245874,-0.2825579774,-0.2934754929,-0.3056461360,-0.3184703661,-0.3346139053,-0.3516794500,-0.3660009312,-0.3802565890,-0.3973960104,-0.4135588449,-0.4324244042,-0.4537066414,-0.4732564135,-0.4926826368,-0.5140954138,-0.5344924127,-0.5510556752,-0.5655852665,-0.5789590665,-0.5886580116,-0.5979489788,-0.6072860894,-0.6146562938,-0.6212166507,-0.6319068086,-0.6450658931,-0.6571836684,-0.6747449696,-0.6914728801,-0.7075147501,-0.7256087631,-0.7438042474,-0.7618029473,-0.7790563800,-0.7974509786,-0.8177609169,-0.8346958339,-0.8494764899,-0.8658494397,-0.8824988238,-0.9000280951,-0.9148859521,-0.9330066392,-0.9497397590,-0.9642763262,-0.9697814252,-0.9619286869,-0.9447671044,-0.9246669963,-0.9094641140,-0.8969304267,-0.8808585829,-0.8639934282,-0.8485229878,-0.8320680715,-0.8183989568,-0.8064448719,-0.7955404822,-0.7820480045,-0.7648669686,-0.7451892824,-0.7207329445,-0.6986374942,-0.6761421799,-0.6527632585,-0.6261848656,-0.6007884950,-0.5784593840,-0.5544526125,-0.5273921419,-0.4982132746,-0.4682693713,-0.4395416316,-0.4122119032,-0.3822370732,-0.3532874163,-0.3290749809,-0.3055622520,-0.2837269287,-0.2585906692,-0.2316883045,-0.2033585652,-0.1760985686,-0.1483606401,-0.1169409723,-0.0847043061,-0.0522380210,-0.0225228687, 0.0073379359, 0.0385939274, 0.0681811264, 0.0980756147, 0.1263415548, 0.1511701636, 0.1728612914, 0.1929979454, 0.2154064068, 0.2364890202, 0.2598455295, 0.2815448387, 0.3033746450, 0.3297809562, 0.3581847247, 0.3858945248, 0.4147812371, 0.4467386960, 0.4797482023, 0.5120108933, 0.5451202555, 0.5792510620, 0.6090396010, 0.6395889079, 0.6720919270, 0.6980242827, 0.7181956959, 0.7369797002, 0.7557556704, 0.7736399433, 0.7899277082, 0.8046770823
0.8840435771, 0.8737031453, 0.8632863292, 0.8500847282, 0.8370085007, 0.8214243613, 0.8018894001, 0.7828859488, 0.7671665719, 0.7516866167, 0.7338527780, 0.7177135734, 0.7042014677, 0.6875897707, 0.6725976962, 0.6613052276, 0.6475624155, 0.6343696968, 0.6180433665, 0.6025780713, 0.5903544296, 0.5774303725, 0.5661302003, 0.5561978222, 0.5458083184, 0.5320051341, 0.5212639289, 0.5130635798, 0.5032460495, 0.4943318467, 0.4871928158, 0.4811360225, 0.4735710297, 0.4642488292, 0.4557774277, 0.4471187124, 0.4293052775, 0.4092308017, 0.3892282805, 0.3730957175, 0.3632521022, 0.3532662672, 0.3416055460, 0.3289130668, 0.3133912656, 0.2993988114, 0.2863221769, 0.2689687212, 0.2546933866, 0.2455268777, 0.2377432611, 0.2306495150, 0.2245039696, 0.2176195098, 0.2069307640, 0.1957720890, 0.1868866314, 0.1781809636, 0.1664386388, 0.1559970775, 0.1476973110, 0.1401969481, 0.1318466697, 0.1238538503, 0.1168682758, 0.1107060781, 0.1071306938, 0.1031521629, 0.0988337612, 0.0920945347, 0.0826481255, 0.0733310837, 0.0659779989, 0.0573821548, 0.0444562005, 0.0303818020, 0.0169611610, 0.0024270502,-0.0127233981,-0.0316696421,-0.0518165801,-0.0744757577,-0.0981052628,-0.1212019553,-0.1440872354,-0.1654329287,-0.1817414255,-0.1967722911,-0.2120135104,-0.2277529138,-0.2401923188,-0.2546057841,-0.2679392382,-0.2768360780,-0.2844405084,-0.2983046999,-0.3142319426,-0.3299222005,-0.3462729330,-0.3620789029,-0.3787638499,-0.3960773846,-0.4129186923,-0.4322306316,-0.4546983092,-0.4771122965,-0.4967020554,-0.5179728972,-0.5374388929,-0.5536677790,-0.5645752199,-0.5754330588,-0.5867688041,-0.5960528404,-0.6043238925,-0.6113311735,-0.6190181839,-0.6286111120,-0.6418074632,-0.6554760556,-0.6726010631,-0.6887987118,-0.7038234255,-0.7207882917,-0.7412590252,-0.7600920907,-0.7768580231,-0.7947140819,-0.8123032264,-0.8290338496,-0.8441450969,-0.8609141647,-0.8786956848,-0.8965462154,-0.9153989791,-0.9355391706,-0.9559584624,-0.9761455535,-0.9866657122,-0.9714551069,-0.9502213386,-0.9271376010,-0.9106854197,-0.8973185794,-0.8811970643,-0.8638671005,-0.8448759603,-0.8259844615,-0.8109827270,-0.8005191028,-0.7918030352,-0.7813119819,-0.7655745755,-0.7459327803,-0.7221909221,-0.6981205196,-0.6762395460,-0.6535720818,-0.6305119270,-0.6054484275,-0.5823219481,-0.5599038136,-0.5327504508,-0.5040689371,-0.4731163388,-0.4416599700,-0.4145994562,-0.3865215192,-0.3585217861,-0.3314252214,-0.3067425819,-0.2845671421,-0.2609478686,-0.2352614604,-0.2053437022,-0.1774154061,-0.1466599417,-0.1127878660,-0.0795088749,-0.0484093527,-0.0205052261, 0.0089575134, 0.0410789614, 0.0727748176, 0.1017521872, 0.1305234443, 0.1584851808, 0.1804597872, 0.1988336635, 0.2184549603, 0.2386714516, 0.2603634667, 0.2817749534, 0.3072245001, 0.3353574450, 0.3634750214, 0.3908907843, 0.4214612859, 0.4513548442, 0.4825237827, 0.5156468696, 0.5508130442, 0.5843976103, 0.6148604918, 0.6450332783, 0.6767678900, 0.7051327359, 0.7273163169, 0.7471308966, 0.7622040077, 0.7759669887, 0.7889032674, 0.8032530513
0.8856679730, 0.8760761347, 0.8654855547, 0.8525068216, 0.8404366521, 0.8246448305, 0.8049102114, 0.7858036710, 0.7714752165, 0.7565150933, 0.7395532022, 0.7219975082, 0.7043650935, 0.6856577901, 0.6700873612, 0.6568188651, 0.6427585383, 0.6267938194, 0.6106654172, 0.5946530983, 0.5799806179, 0.5675976113, 0.5527240429, 0.5410163498, 0.5297364914, 0.5164642564, 0.5049385023, 0.4953733329, 0.4858138727, 0.4777389712, 0.4714193790, 0.4654379449, 0.4549365796, 0.4473323133, 0.4379938797, 0.4268118956, 0.4107063114, 0.3922609769, 0.3733663290, 0.3590941298, 0.3491542730, 0.3392883271, 0.3275671177, 0.3139324914, 0.2994387540, 0.2867375561, 0.2725768526, 0.2565879768, 0.2430068841, 0.2330038267, 0.2251362925, 0.2207492110, 0.2160446293, 0.2104150117, 0.1994650898, 0.1870908586, 0.1761356518, 0.1657758231, 0.1552331349, 0.1440398034, 0.1337806545, 0.1270647788, 0.1182226329, 0.1116107469, 0.1078319855, 0.1041455768, 0.1006945897, 0.0957060979, 0.0890358958, 0.0812098396, 0.0721223730, 0.0629333254, 0.0560591723, 0.0499507047, 0.0399909759, 0.0276473530, 0.0150808339, 0.0024200307,-0.0128770965,-0.0321876507,-0.0534454496,-0.0784735670,-0.1009458287,-0.1211100936,-0.1431011649,-0.1658505684,-0.1828823326,-0.1992159750,-0.2152476991,-0.2296310471,-0.2413438921,-0.2528821286,-0.2625090466,-0.2698425438,-0.2771947702,-0.2901313431,-0.3055896837,-0.3211860931,-0.3372228978,-0.3555957338,-0.3749284590,-0.3927332908,-0.4102283861,-0.4297648235,-0.4510347649,-0.4758419652,-0.4987533715,-0.5188118478,-0.5366081409,-0.5521995466,-0.5628906680,-0.5733627509,-0.5845634898,-0.5943862707,-0.6025260131,-0.6110847723,-0.6210651567,-0.6312584728,-0.6418855122,-0.6543772029,-0.6715588199,-0.6870438390,-0.7008160683,-0.7158545106,-0.7347899569,-0.7550043780,-0.7732475075,-0.7913094803,-0.8078531485,-0.8244304874,-0.8388028758,-0.8573691198,-0.8755090925,-0.8912525819,-0.9123988238,-0.9329966335,-0.9548866262,-0.9770627644,-0.9971833539,-0.9736602539,-0.9505586124,-0.9281232274,-0.9088587012,-0.8931750453,-0.8786064289,-0.8614358569,-0.8409309797,-0.8221838709,-0.8063012782,-0.7975776513,-0.7897810180,-0.7788400514,-0.7644194187,-0.7431985138,-0.7191882272,-0.6974385681,-0.6752923080,-0.6518435969,-0.6309450765,-0.6051923947,-0.5801042301,-0.5584215330,-0.5338371546,-0.5071635879,-0.4767160471,-0.4472957170,-0.4209388891,-0.3929431995,-0.3648987156,-0.3355211908,-0.3090956147,-0.2855582937,-0.2619763115,-0.2360280660,-0.2059539525,-0.1774939374,-0.1461726495,-0.1104047213,-0.0772085779,-0.0479080493,-0.0196720318, 0.0082859503, 0.0401401730, 0.0738114684, 0.1042223116, 0.1321413103, 0.1597092733, 0.1852029766, 0.2056208083, 0.2251232472, 0.2450971629, 0.2657847819, 0.2884057917, 0.3133824931, 0.3413721380, 0.3696054592, 0.3957522417, 0.4244185030, 0.4523371670, 0.4830259839, 0.5174074624, 0.5522498404, 0.5850039882, 0.6178802219, 0.6479475048, 0.6810103250, 0.7084890858, 0.7321408270, 0.7520397425, 0.7660585928, 0.7787498646, 0.7906341848, 0.8064893258
0.8876636171, 0.8795918798, 0.8682753003, 0.8545988501, 0.8410333793, 0.8271084573, 0.8093269422, 0.7924474284, 0.7767069185, 0.7582133216, 0.7414116558, 0.7257048193, 0.7089329707, 0.6901913356, 0.6692491698, 0.6527366080, 0.6364800517, 0.6189872011, 0.6033498326, 0.5883819630, 0.5718247075, 0.5567357857, 0.5407070926, 0.5286139942, 0.5172107235, 0.5032789922, 0.4894109751, 0.4792415786, 0.4692064750, 0.4600269507, 0.4535018504, 0.4478424007, 0.4370039340, 0.4300048373, 0.4210195451, 0.4063176596, 0.3902591500, 0.3745670409, 0.3600575599, 0.3457489536, 0.3331333239, 0.3199635219, 0.3079429888, 0.2970940857, 0.2837025988, 0.2725100240, 0.2589390729, 0.2453083249, 0.2344324208, 0.2241000466, 0.2158902638, 0.2116080290, 0.2068763781, 0.1999588682, 0.1906483978, 0.1794330351, 0.1661251898, 0.1544633199, 0.1423924391, 0.1333469849, 0.1240384058, 0.1139905285, 0.1052966199, 0.0978641488, 0.0960120780, 0.0945583038, 0.0915284185, 0.0860960070, 0.0793361920, 0.0711376111, 0.0637277790, 0.0557712848, 0.0487529392, 0.0452847989, 0.0368677348, 0.0243673998, 0.0128603783,-0.0015888710,-0.0195156519,-0.0370696539,-0.0566885011,-0.0789819330,-0.1025280432,-0.1208468264,-0.1400198946,-0.1620624294,-0.1820593037,-0.2006649079,-0.2151355090,-0.2271840972,-0.2397824966,-0.2496667714,-0.2564906182,-0.2630918269,-0.2730770692,-0.2835371400,-0.2992548985,-0.3162685427,-0.3306315203,-0.3468641280,-0.3696768274,-0.3886669287,-0.4070881488,-0.4271766150,-0.4497076627,-0.4724348666,-0.4970151094,-0.5192392022,-0.5369594187,-0.5514279634,-0.5647590029,-0.5754760229,-0.5845247931,-0.5938038813,-0.6020934275,-0.6127389013,-0.6222070806,-0.6346520325,-0.6436300955,-0.6542962615,-0.6708278975,-0.6854952388,-0.6972228770,-0.7119417592,-0.7298928899,-0.7518346026,-0.7697827093,-0.7879843699,-0.8049624595,-0.8205681243,-0.8377526016,-0.8555280315,-0.8719403376,-0.8881993373,-0.9083233737,-0.9291543765,-0.9481734591,-0.9694506416,-0.9781811797,-0.9663847498,-0.9472858775,-0.9282982804,-0.9077743544,-0.8918997398,-0.8768237496,-0.8591805179,-0.8392681432,-0.8223889049,-0.8079665685,-0.7985659358,-0.7889173986,-0.7746057451,-0.7575386761,-0.7373551710,-0.7172646882,-0.6947647863,-0.6699415603,-0.6460589063,-0.6259260845,-0.6019349705,-0.5776428079,-0.5533262428,-0.5289508843,-0.5058173297,-0.4804545033,-0.4522980849,-0.4262082342,-0.4008492047,-0.3713397030,-0.3393637008,-0.3103260941,-0.2856517703,-0.2607872722,-0.2343494045,-0.2048340343,-0.1743064450,-0.1422248838,-0.1090650947,-0.0777779849,-0.0470510587,-0.0167283575, 0.0106667290, 0.0390564247, 0.0704611957, 0.1011906450, 0.1306158186, 0.1576252001, 0.1851399373, 0.2106605913, 0.2317030810, 0.2517486855, 0.2738860167, 0.2965694151, 0.3201731667, 0.3467182917, 0.3733113151, 0.3979429535, 0.4248016628, 0.4536784036, 0.4844318406, 0.5185613985, 0.5529710342, 0.5893662481, 0.6221940453, 0.6539995845, 0.6854207559, 0.7128432230, 0.7373017686, 0.7576465511, 0.7710092600, 0.7842197476, 0.7977782130, 0.8120461356
0.8871951171, 0.8791735729, 0.8688364690, 0.8559560115, 0.8420976265, 0.8297414276, 0.8164674931, 0.8011214650, 0.7816543605, 0.7611999562, 0.7437915546, 0.7276965700, 0.7115117461, 0.6929984666, 0.6726055666, 0.6527557138, 0.6338780382, 0.6177718024, 0.5995466883, 0.5824315965, 0.5663470285, 0.5496361159, 0.5314451597, 0.5178454081, 0.5031950270, 0.4883952570, 0.4788783667, 0.4660403313, 0.4535169734, 0.4430600141, 0.4363807165, 0.4321051199, 0.4211872237, 0.4138401532, 0.4035976532, 0.3887020371, 0.3722328439, 0.3571837420, 0.3464461579, 0.3322761026, 0.3179671208, 0.3023822992, 0.2888180640, 0.2792955506, 0.2675648988, 0.2560263583, 0.2449095014, 0.2337315308, 0.2230487888, 0.2123311263, 0.2044879444, 0.1997658768, 0.1954610728, 0.1886064716, 0.1803336947, 0.1721719464, 0.1601166357, 0.1473721209, 0.1347187002, 0.1244200110, 0.1144740866, 0.1043822882, 0.0949665182, 0.0876645876, 0.0846247090, 0.0838515803, 0.0784441420, 0.0706271988, 0.0654755888, 0.0599681705, 0.0544870523, 0.0473217631, 0.0400191770, 0.0375356603, 0.0307089783, 0.0177228638, 0.0062611168,-0.0099869601,-0.0261188403,-0.0420271786,-0.0583689829,-0.0778872753,-0.1013768722,-0.1202715576,-0.1388676349,-0.1607455758,-0.1817450879,-0.1986240560,-0.2132015554,-0.2258138499,-0.2366718534,-0.2461786387,-0.2524356022,-0.2598286109,-0.2705600094,-0.2801981906,-0.2938965236,-0.3118517570,-0.3252459089,-0.3410833166,-0.3627578819,-0.3828256165,-0.4034821774,-0.4263169236,-0.4514120109,-0.4743037899,-0.4956330815,-0.5168450167,-0.5356556725,-0.5511430011,-0.5626410403,-0.5731982535,-0.5828930889,-0.5915677439,-0.5998231572,-0.6132867318,-0.6238254672,-0.6362814872,-0.6467930535,-0.6570801225,-0.6697712286,-0.6853092536,-0.6990443805,-0.7120562756,-0.7265587148,-0.7480973667,-0.7686157635,-0.7873607753,-0.8045112588,-0.8200103246,-0.8379378979,-0.8559818223,-0.8733616715,-0.8891688026,-0.9085668501,-0.9260996212,-0.9431560858,-0.9603495536,-0.9637164820,-0.9560271532,-0.9415226156,-0.9236839427,-0.9058209996,-0.8906001467,-0.8756754801,-0.8585637243,-0.8398165851,-0.8245254148,-0.8101536112,-0.7983252263,-0.7875970864,-0.7713650465,-0.7508803139,-0.7324502474,-0.7150709071,-0.6948033523,-0.6687251322,-0.6442819500,-0.6219617751,-0.5982592600,-0.5737088127,-0.5489380641,-0.5232483233,-0.5008044672,-0.4780252600,-0.4529590832,-0.4303627378,-0.4056818811,-0.3746330477,-0.3415299198,-0.3126376475,-0.2855714301,-0.2599988156,-0.2328347575,-0.2021125942,-0.1703339235,-0.1371033684,-0.1070901207,-0.0778775364,-0.0452894198,-0.0145294635, 0.0132501204, 0.0397765575, 0.0664672170, 0.0954116612, 0.1270040133, 0.1558129366, 0.1835090614, 0.2126392493, 0.2362335776, 0.2578531056, 0.2796092000, 0.3016563305, 0.3236282190, 0.3468246217, 0.3740634598, 0.4006472259, 0.4275863079, 0.4555422501, 0.4864423164, 0.5192939713, 0.5558902647, 0.5924884957, 0.6252393692, 0.6585428745, 0.6886276863, 0.7143842802, 0.7374424469, 0.7572773114, 0.7734417299, 0.7903627239, 0.8056909554, 0.8189117221
0.8891462858, 0.8767915843, 0.8664114232, 0.8572747351, 0.8456559475, 0.8321166283, 0.8186592485, 0.8027051113, 0.7854614464, 0.7669963576, 0.7474764080, 0.7300453450, 0.7123493973, 0.6919895730, 0.6715700769, 0.6532564210, 0.6335269883, 0.6150555325, 0.5975556876, 0.5797856060, 0.5625947937, 0.5435058286, 0.5236913488, 0.5082383847, 0.4922813835, 0.4781150119, 0.4664274706, 0.4525745414, 0.4396475445, 0.4299172748, 0.4246575588, 0.4181584905, 0.4063433666, 0.3976679983, 0.3869243199, 0.3732128910, 0.3584849013, 0.3451568539, 0.3323779762, 0.3157147657, 0.2972098214, 0.2817642672, 0.2713421928, 0.2629911187, 0.2525204286, 0.2422103166, 0.2344959544, 0.2252979953, 0.2132712178, 0.2018002388, 0.1929100427, 0.1874708074, 0.1814295653, 0.1766089785, 0.1678227701, 0.1597025477, 0.1512567398, 0.1381006803, 0.1274674111, 0.1150003196, 0.1026181014, 0.0945042614, 0.0859976509, 0.0777987146, 0.0736541841, 0.0690599395, 0.0608623291, 0.0532937423, 0.0514330077, 0.0450095236, 0.0412506324, 0.0372782973, 0.0309907616, 0.0278593013, 0.0215796770, 0.0092666183,-0.0047831678,-0.0190693387,-0.0297101100,-0.0420616148,-0.0572815566,-0.0762646566,-0.0990499528,-0.1211497766,-0.1402422685,-0.1630281486,-0.1835102743,-0.1997878501,-0.2142007923,-0.2259629658,-0.2364406371,-0.2445698987,-0.2516052988,-0.2610927684,-0.2712357927,-0.2806504157,-0.2910686796,-0.3067717894,-0.3231115139,-0.3382272926,-0.3561666269,-0.3779523696,-0.3980882343,-0.4196347791,-0.4467270277,-0.4727353403,-0.4940397107,-0.5158775014,-0.5329187729,-0.5454918164,-0.5570469015,-0.5695673136,-0.5814325608,-0.5920799343,-0.6001246870,-0.6114305433,-0.6250068442,-0.6393933284,-0.6519082392,-0.6598882512,-0.6709870353,-0.6879226156,-0.7037012284,-0.7171731045,-0.7283231155,-0.7472188577,-0.7686734612,-0.7893609563,-0.8085926850,-0.8270475374,-0.8444282102,-0.8623309518,-0.8788476821,-0.8929784371,-0.9090256954,-0.9237323578,-0.9394059029,-0.9515592212,-0.9516336326,-0.9474282474,-0.9357935482,-0.9191553421,-0.9029805614,-0.8877606997,-0.8733713144,-0.8590069359,-0.8420668992,-0.8259964166,-0.8104856159,-0.7973572321,-0.7834691059,-0.7644651155,-0.7439201701,-0.7255593441,-0.7079860904,-0.6901573475,-0.6665497551,-0.6427637726,-0.6181104514,-0.5929199460,-0.5664573302,-0.5417022300,-0.5145060320,-0.4915022620,-0.4734901331,-0.4536928108,-0.4310507597,-0.4082677346,-0.3775707715,-0.3444558364,-0.3136738023,-0.2851086667,-0.2562667044,-0.2300705163,-0.2000995697,-0.1645568191,-0.1301806261,-0.1000386604,-0.0710585991,-0.0399846320,-0.0124364791, 0.0133230236, 0.0377358878, 0.0641720006, 0.0925822068, 0.1229763726, 0.1535675612, 0.1816433300, 0.2119500722, 0.2389511643, 0.2618073864, 0.2818894634, 0.3029081159, 0.3263149349, 0.3503796524, 0.3768233365, 0.4048703922, 0.4307933837, 0.4598357359, 0.4905704997, 0.5221913837, 0.5564015208, 0.5907901410, 0.6236709632, 0.6565463117, 0.6838032693, 0.7099250195, 0.7332659486, 0.7538807385, 0.7732364590, 0.7932450104, 0.8090653725, 0.8234225181
0.8907548407, 0.8786832293, 0.8662164566, 0.8564668752, 0.8431413251, 0.8298584886, 0.8157130351, 0.8009427896, 0.7856037120, 0.7681900614, 0.7486838346, 0.7301609320, 0.7121891662, 0.6908111928, 0.6712782083, 0.6517496985, 0.6312493652, 0.6116628949, 0.5949804859, 0.5778456151, 0.5578873790, 0.5352809967, 0.5149207518, 0.4981704203, 0.4817507098, 0.4664334771, 0.4526178878, 0.4390138204, 0.4273986583, 0.4185660792, 0.4107447289, 0.4005494828, 0.3912303889, 0.3814456706, 0.3718847060, 0.3598775305, 0.3454835960, 0.3332255759, 0.3157202758, 0.2940326199, 0.2747581237, 0.2604176908, 0.2533661463, 0.2456427289, 0.2369177237, 0.2288970108, 0.2227323314, 0.2149865533, 0.2049795018, 0.1942136030, 0.1831878521, 0.1748918879, 0.1703950176, 0.1640050363, 0.1541283654, 0.1454403598, 0.1359165722, 0.1259128754, 0.1162578454, 0.1023906729, 0.0896592670, 0.0827899799, 0.0746506349, 0.0655472863, 0.0598904874, 0.0534795833, 0.0448469890, 0.0390037257, 0.0363158015, 0.0330592817, 0.0315970004, 0.0295478710, 0.0238531745, 0.0192472302, 0.0126754771, 0.0023322050,-0.0129243027,-0.0243842011,-0.0336970187,-0.0446147285,-0.0580363342,-0.0779274010,-0.1003707441,-0.1215321309,-0.1432809607,-0.1642543272,-0.1846358106,-0.2015392353,-0.2183542762,-0.2305340469,-0.2395194029,-0.2455422298,-0.2510309870,-0.2603710532,-0.2721421368,-0.2835789915,-0.2942282874,-0.3079074560,-0.3246204450,-0.3373525574,-0.3509355159,-0.3703239730,-0.3907331335,-0.4110109692,-0.4369333839,-0.4658059567,-0.4909753133,-0.5146803613,-0.5315201585,-0.5439386352,-0.5566609495,-0.5695130670,-0.5812125507,-0.5912003327,-0.5993810309,-0.6110924620,-0.6286436484,-0.6456869225,-0.6585899205,-0.6655229648,-0.6761892541,-0.6923845451,-0.7088249124,-0.7201704635,-0.7318018705,-0.7486091099,-0.7673239877,-0.7893887633,-0.8118605787,-0.8316053943,-0.8508850012,-0.8696499438,-0.8872651988,-0.9021165872,-0.9159721368,-0.9286454600,-0.9406036015,-0.9460758210,-0.9422981605,-0.9374654608,-0.9263136572,-0.9136423096,-0.8987161454,-0.8833261435,-0.8690921020,-0.8566064767,-0.8412380554,-0.8229410699,-0.8080139534,-0.7924724203,-0.7766604862,-0.7587050977,-0.7383366269,-0.7183897414,-0.6994378861,-0.6803617833,-0.6605696918,-0.6390663298,-0.6139979492,-0.5891824168,-0.5631184302,-0.5354854121,-0.5077610610,-0.4864026050,-0.4684914967,-0.4514629001,-0.4303037428,-0.4076922346,-0.3797980485,-0.3462861040,-0.3137244061,-0.2836315392,-0.2549741795,-0.2253470530,-0.1929435137,-0.1580572040,-0.1241955102,-0.0916934042,-0.0640499371,-0.0357827499,-0.0072360158, 0.0164243045, 0.0393098540, 0.0633659475, 0.0917203504, 0.1223646982, 0.1532096206, 0.1830663569, 0.2121239201, 0.2387128092, 0.2631586926, 0.2835465475, 0.3037623589, 0.3288645937, 0.3533969102, 0.3801444849, 0.4079712097, 0.4366923383, 0.4660034161, 0.4957286328, 0.5245698260, 0.5572610587, 0.5908194024, 0.6231606898, 0.6506599952, 0.6746145381, 0.7015236047, 0.7264824203, 0.7509837564, 0.7704672217, 0.7903449473, 0.8086825132, 0.8244113604
0.8906915775, 0.8796588689, 0.8675276372, 0.8544465883, 0.8414753373, 0.8281033861, 0.8131410205, 0.7992316114, 0.7845412630, 0.7666540737, 0.7458941102, 0.7265831002, 0.7078115771, 0.6909596330, 0.6727658722, 0.6511350787, 0.6298134844, 0.6078639072, 0.5894251981, 0.5718516862, 0.5512627066, 0.5318602708, 0.5109605369, 0.4905989584, 0.4729247689, 0.4577886117, 0.4429289997, 0.4272137129, 0.4152710520, 0.4057539494, 0.3952364189, 0.3849910452, 0.3764981570, 0.3676757981, 0.3588216532, 0.3475925567, 0.3361110512, 0.3214230547, 0.2997370273, 0.2776365859, 0.2590317363, 0.2471004950, 0.2381148271, 0.2306148388, 0.2232342192, 0.2164178725, 0.2111627448, 0.2017128809, 0.1924326958, 0.1833351683, 0.1726895616, 0.1643690681, 0.1601056237, 0.1530786266, 0.1433762769, 0.1311670211, 0.1224860247, 0.1148938636, 0.1038190514, 0.0889194075, 0.0773228943, 0.0706148755, 0.0604939268, 0.0510766044, 0.0432085165, 0.0376580304, 0.0324998851, 0.0276390205, 0.0254916506, 0.0238510643, 0.0240351755, 0.0227805525, 0.0161778366, 0.0112320991, 0.0042888487,-0.0038566431,-0.0170925323,-0.0277973145,-0.0372001000,-0.0484489118,-0.0624204852,-0.0808197283,-0.1009403022,-0.1208127303,-0.1427796337,-0.1639686640,-0.1857977920,-0.2036711682,-0.2204218910,-0.2329562413,-0.2410809604,-0.2475523909,-0.2545808696,-0.2627704904,-0.2725989107,-0.2847026095,-0.2977246930,-0.3121191315,-0.3263857443,-0.3374753079,-0.3474248226,-0.3642682295,-0.3825526453,-0.4034369443,-0.4278309611,-0.4555738270,-0.4835636579,-0.5073000155,-0.5255961642,-0.5415258186,-0.5567124913,-0.5694360860,-0.5802524586,-0.5895371142,-0.6006209652,-0.6144567883,-0.6338687258,-0.6510278804,-0.6639560764,-0.6728970048,-0.6841445203,-0.7003271531,-0.7149019947,-0.7240458851,-0.7357256190,-0.7469435519,-0.7631169715,-0.7838362123,-0.8099552536,-0.8325712407,-0.8502787917,-0.8693856742,-0.8891657833,-0.9101276342,-0.9243311080,-0.9361098890,-0.9442391100,-0.9430525102,-0.9347273237,-0.9270241888,-0.9166397413,-0.9049207336,-0.8915309433,-0.8776954434,-0.8641448416,-0.8501059434,-0.8352634055,-0.8184348392,-0.8038950051,-0.7874407791,-0.7720003716,-0.7550568780,-0.7346289931,-0.7134489595,-0.6923741412,-0.6733987834,-0.6574388587,-0.6371139136,-0.6135956759,-0.5901323205,-0.5642342430,-0.5358130235,-0.5098376416,-0.4864070819,-0.4655550222,-0.4449610243,-0.4252510676,-0.4049993304,-0.3788166304,-0.3468926423,-0.3114309674,-0.2808816628,-0.2528746064,-0.2215314945,-0.1868355034,-0.1523707114,-0.1164340520,-0.0847891772,-0.0587547101,-0.0334212366,-0.0080528709, 0.0164411717, 0.0398922332, 0.0631823943, 0.0924544187, 0.1214273933, 0.1509096609, 0.1812302876, 0.2087391060, 0.2350547527, 0.2603420100, 0.2853028329, 0.3082511378, 0.3301944582, 0.3545525977, 0.3813512859, 0.4111254146, 0.4407208728, 0.4700912606, 0.4995690589, 0.5296109222, 0.5610510059, 0.5927597935, 0.6235382697, 0.6472378853, 0.6649713842, 0.6884770637, 0.7143588488, 0.7399119611, 0.7632168520, 0.7838248947, 0.8023570882, 0.8185202331
0.8901128319, 0.8770380019, 0.8666561058, 0.8551771991, 0.8419730176, 0.8277299583, 0.8131798228, 0.7980513385, 0.7833450284, 0.7635163104, 0.7419585523, 0.7230398008, 0.7043476499, 0.6864405523, 0.6673161912, 0.6462838770, 0.6229271995, 0.6001633094, 0.5823152361, 0.5639530103, 0.5442557111, 0.5255739855, 0.5053518680, 0.4844259573, 0.4662719925, 0.4520817349, 0.4361909221, 0.4207968545, 0.4067873806, 0.3944161290, 0.3829991289, 0.3718934634, 0.3622788481, 0.3551632847, 0.3479195053, 0.3379007797, 0.3268964576, 0.3110596165, 0.2870809547, 0.2665565342, 0.2494573373, 0.2359755631, 0.2261049052, 0.2192730028, 0.2113566989, 0.2050088926, 0.1999162126, 0.1912858556, 0.1810253954, 0.1708354971, 0.1621428711, 0.1555182067, 0.1518930402, 0.1450784779, 0.1331842603, 0.1219302972, 0.1129849525, 0.1041578067, 0.0932402623, 0.0782768623, 0.0651430042, 0.0563060724, 0.0461419018, 0.0342785405, 0.0260809007, 0.0216348697, 0.0189237463, 0.0159698752, 0.0139775149, 0.0126253177, 0.0149024148, 0.0155259031, 0.0079021208, 0.0029525261,-0.0028467030,-0.0105890889,-0.0199925810,-0.0310356776,-0.0409862758,-0.0532111244,-0.0680416087,-0.0829955296,-0.1018175875,-0.1208614405,-0.1426225222,-0.1667168948,-0.1870334787,-0.2042355629,-0.2182989701,-0.2299292512,-0.2387675399,-0.2474491782,-0.2566943839,-0.2650453616,-0.2744043061,-0.2858750171,-0.2992796189,-0.3126438714,-0.3265785608,-0.3382715384,-0.3482226261,-0.3634387729,-0.3805827116,-0.3983863047,-0.4212446904,-0.4478516329,-0.4750554194,-0.4984682478,-0.5193744024,-0.5372913197,-0.5531804281,-0.5673164164,-0.5779221186,-0.5866997543,-0.5995556590,-0.6172541057,-0.6362587252,-0.6529023578,-0.6678500587,-0.6805967000,-0.6904189748,-0.7038065073,-0.7173723314,-0.7274810346,-0.7385867701,-0.7471715346,-0.7615888307,-0.7831894406,-0.8088540473,-0.8315323945,-0.8467426349,-0.8641937793,-0.8874958869,-0.9117231499,-0.9274923382,-0.9385731371,-0.9437593310,-0.9394854645,-0.9284079732,-0.9186708506,-0.9091423374,-0.8982159987,-0.8862133865,-0.8734530432,-0.8603748586,-0.8470906635,-0.8312596765,-0.8150895970,-0.7994834859,-0.7826584682,-0.7682493865,-0.7524607049,-0.7331227134,-0.7120186729,-0.6890233367,-0.6719531772,-0.6549585947,-0.6367969525,-0.6173269331,-0.5952112190,-0.5690031668,-0.5390682180,-0.5133123150,-0.4880075107,-0.4652050183,-0.4413694593,-0.4190719442,-0.3979887119,-0.3740939670,-0.3438831937,-0.3095173363,-0.2761183676,-0.2442350351,-0.2128278080,-0.1790571903,-0.1433634250,-0.1077551702,-0.0786042087,-0.0539313831,-0.0323690354,-0.0089152208, 0.0157677827, 0.0407288670, 0.0651204594, 0.0923776875, 0.1198829260, 0.1468261337, 0.1765202021, 0.2048590456, 0.2331950082, 0.2596703168, 0.2856646959, 0.3112406979, 0.3306773556, 0.3549384298, 0.3826392298, 0.4131495350, 0.4434370856, 0.4755459474, 0.5068697610, 0.5370151709, 0.5658207406, 0.5955019317, 0.6230034187, 0.6447819270, 0.6617959195, 0.6801955179, 0.7031032067, 0.7284533077, 0.7534654510, 0.7751747111, 0.7938044118, 0.8105644927
0.8912382671, 0.8789529948, 0.8673630180, 0.8553512419, 0.8414902218, 0.8272413013, 0.8128128554, 0.7965524275, 0.7808477860, 0.7608788686, 0.7396864298, 0.7192855145, 0.6984748373, 0.6793975183, 0.6569152464, 0.6345669852, 0.6137078837, 0.5926972449, 0.5735580522, 0.5560256211, 0.5372539974, 0.5179556837, 0.4978479871, 0.4790989322, 0.4628865570, 0.4474937147, 0.4305438280, 0.4142450526, 0.3985957303, 0.3838223503, 0.3706588144, 0.3603500672, 0.3505097543, 0.3436445110, 0.3348850701, 0.3270967311, 0.3146669478, 0.2987189620, 0.2759396889, 0.2553355680, 0.2400360443, 0.2268283534, 0.2150997603, 0.2063716430, 0.1985085236, 0.1927112560, 0.1867140845, 0.1783048742, 0.1695222677, 0.1630035362, 0.1559557283, 0.1492210832, 0.1438246896, 0.1350144351, 0.1247645486, 0.1126167374, 0.1012025051, 0.0914741686, 0.0801004348, 0.0673312232, 0.0545435183, 0.0440840634, 0.0344789142, 0.0228130029, 0.0134717968, 0.0094487138, 0.0091006805, 0.0095164652, 0.0067596212, 0.0037869663, 0.0047526882, 0.0041071536,-0.0030581724,-0.0065152896,-0.0107125102,-0.0170795036,-0.0243772777,-0.0352229634,-0.0480562682,-0.0626905982,-0.0755037771,-0.0885501389,-0.1057970415,-0.1262305536,-0.1472591647,-0.1706527502,-0.1934410937,-0.2087748438,-0.2185536131,-0.2285474004,-0.2403195739,-0.2496396300,-0.2597162558,-0.2678163026,-0.2763015502,-0.2893842953,-0.3054855270,-0.3189466948,-0.3314572900,-0.3432723268,-0.3543546332,-0.3675157245,-0.3819984754,-0.3984419716,-0.4183845148,-0.4407380337,-0.4658835183,-0.4896494857,-0.5120509001,-0.5312717688,-0.5483077219,-0.5629617943,-0.5765911655,-0.5855828415,-0.5988119481,-0.6176009361,-0.6358813502,-0.6541504652,-0.6707325545,-0.6843239200,-0.6945229613,-0.7052150418,-0.7186885500,-0.7307988374,-0.7413530365,-0.7513661963,-0.7636248252,-0.7844490320,-0.8093107896,-0.8275929144,-0.8435579164,-0.8612027209,-0.8840847378,-0.9075317326,-0.9252077412,-0.9371778413,-0.9392759601,-0.9353326750,-0.9266514596,-0.9167299227,-0.9069928216,-0.8960116200,-0.8841464730,-0.8713034206,-0.8572643846,-0.8439071150,-0.8275478479,-0.8125578191,-0.7995864605,-0.7839107494,-0.7679945420,-0.7528742620,-0.7349546855,-0.7144177535,-0.6927500103,-0.6736988708,-0.6552780655,-0.6395149244,-0.6215684131,-0.6013748640,-0.5740641365,-0.5443939529,-0.5181773178,-0.4912677686,-0.4650767981,-0.4389546734,-0.4142970048,-0.3912549950,-0.3668882135,-0.3374124601,-0.3018204401,-0.2688126938,-0.2341730032,-0.1998336394,-0.1670451491,-0.1308462224,-0.0971079219,-0.0694437438,-0.0466707963,-0.0270059578,-0.0067125865, 0.0177381997, 0.0442292006, 0.0703979114, 0.0941787116, 0.1187577648, 0.1466016678, 0.1744389320, 0.2021749591, 0.2318985956, 0.2609336959, 0.2875367505, 0.3126993536, 0.3338244133, 0.3560268745, 0.3826661667, 0.4113743010, 0.4455881602, 0.4811221635, 0.5139557692, 0.5443052286, 0.5717043736, 0.5979299028, 0.6211323042, 0.6424933664, 0.6588034466, 0.6749810645, 0.6962520642, 0.7210333217, 0.7446655026, 0.7676504105, 0.7860905626, 0.8020168287
0.8872144946, 0.8760977105, 0.8658901879, 0.8552584848, 0.8415457502, 0.8259199651, 0.8115566661, 0.7960632304, 0.7779936671, 0.7597511205, 0.7383153747, 0.7158561256, 0.6927562255, 0.6719287225, 0.6496050836, 0.6264576319, 0.6055585715, 0.5851803596, 0.5651434701, 0.5471615213, 0.5308781522, 0.5100920654, 0.4902367361, 0.4731264701, 0.4576193501, 0.4419038883, 0.4240382472, 0.4062856804, 0.3885380786, 0.3745460394, 0.3630851528, 0.3526806755, 0.3435281757, 0.3345272716, 0.3245254085, 0.3147242680, 0.3030802564, 0.2856035136, 0.2642051117, 0.2461378194, 0.2312980468, 0.2180943753, 0.2053902311, 0.1963323425, 0.1887403983, 0.1826936595, 0.1764168806, 0.1676732732, 0.1617812797, 0.1571448367, 0.1499205413, 0.1438161510, 0.1364068869, 0.1257778176, 0.1128726656, 0.1002290668, 0.0893722233, 0.0790739602, 0.0669404895, 0.0545706893, 0.0422534850, 0.0322806428, 0.0244407978, 0.0152383580, 0.0068376117, 0.0012100595, 0.0019569818, 0.0014267810,-0.0022521913,-0.0058442539,-0.0059643444,-0.0086553472,-0.0140420619,-0.0164242535,-0.0196208193,-0.0246256972,-0.0317231035,-0.0414120353,-0.0559134945,-0.0703975354,-0.0828486609,-0.0962175488,-0.1125895081,-0.1327638373,-0.1519515626,-0.1751675695,-0.1985767813,-0.2132290361,-0.2237570780,-0.2334272929,-0.2443560076,-0.2550928056,-0.2636630233,-0.2715867655,-0.2819201406,-0.2952959503,-0.3136716936,-0.3300121275,-0.3418856518,-0.3536401087,-0.3650340490,-0.3761399674,-0.3861293199,-0.4004915679,-0.4163318577,-0.4343181337,-0.4574513453,-0.4802091050,-0.5024375953,-0.5244151802,-0.5433343817,-0.5585077771,-0.5736797484,-0.5852630878,-0.5978993051,-0.6155345892,-0.6361612988,-0.6550509293,-0.6703787977,-0.6842802797,-0.6974689691,-0.7104869121,-0.7223024110,-0.7336082261,-0.7456564238,-0.7576440514,-0.7707425313,-0.7877024465,-0.8074753557,-0.8254386878,-0.8413409771,-0.8580513729,-0.8776020185,-0.8989673306,-0.9157328803,-0.9265199269,-0.9291923975,-0.9289454651,-0.9242096437,-0.9174505508,-0.9084582445,-0.8969666560,-0.8840975046,-0.8700611654,-0.8558045524,-0.8407854512,-0.8257685330,-0.8125393728,-0.8015892196,-0.7868899454,-0.7723428268,-0.7544408786,-0.7341109720,-0.7142691295,-0.6941259907,-0.6765383993,-0.6603996235,-0.6447194287,-0.6256353869,-0.6033349631,-0.5764373457,-0.5470480746,-0.5212178377,-0.4922997909,-0.4650119121,-0.4380293059,-0.4102917575,-0.3840383677,-0.3585172626,-0.3283853907,-0.2943902845,-0.2588780095,-0.2243013245,-0.1889568484,-0.1554736644,-0.1196841559,-0.0885570349,-0.0594621480,-0.0395134807,-0.0206026915, 0.0001221152, 0.0244072784, 0.0511804524, 0.0765684485, 0.1000905353, 0.1222674402, 0.1492988469, 0.1765400023, 0.2008596249, 0.2294476537, 0.2588901229, 0.2880374383, 0.3137274370, 0.3360812830, 0.3594943457, 0.3847737846, 0.4127627909, 0.4471059614, 0.4827210253, 0.5159659718, 0.5473661774, 0.5758184945, 0.5981670468, 0.6187322908, 0.6374162000, 0.6536753247, 0.6691457232, 0.6910609325, 0.7146124067, 0.7372874375, 0.7595102037, 0.7779125862, 0.7922359305
0.8803083583, 0.8690683454, 0.8610038426, 0.8511377178, 0.8384100655, 0.8254642234, 0.8109265483, 0.7948262221, 0.7750202597, 0.7560762734, 0.7345801881, 0.7117943985, 0.6897297743, 0.6667366110, 0.6439010698, 0.6222482329, 0.6019870498, 0.5794077820, 0.5579385701, 0.5399363938, 0.5234916865, 0.5035844997, 0.4845176272, 0.4665998948, 0.4521698125, 0.4351633739, 0.4178222371, 0.3995194493, 0.3824136003, 0.3694383585, 0.3594627501, 0.3472549990, 0.3350032718, 0.3267022082, 0.3173790183, 0.3050401221, 0.2922806688, 0.2748810463, 0.2556017100, 0.2391612167, 0.2232571641, 0.2121275628, 0.2015859806, 0.1911197899, 0.1815130478, 0.1744167942, 0.1679303791, 0.1627316287, 0.1574108439, 0.1519070348, 0.1461939430, 0.1390440904, 0.1298756613, 0.1182293190, 0.1054034586, 0.0951190665, 0.0828446644, 0.0701055777, 0.0567912184, 0.0450938308, 0.0339243892, 0.0221877941, 0.0162163097, 0.0103479611, 0.0041380026,-0.0024326525,-0.0045984858,-0.0065819319,-0.0104411719,-0.0140330944,-0.0185416442,-0.0220757225,-0.0255660279,-0.0277760406,-0.0310971620,-0.0359561351,-0.0407977792,-0.0489404681,-0.0619794683,-0.0780247230,-0.0925173815,-0.1054168058,-0.1208483008,-0.1392337799,-0.1572086940,-0.1787224142,-0.1989099996,-0.2137998021,-0.2278140608,-0.2398831222,-0.2515025952,-0.2627496549,-0.2703155885,-0.2790793306,-0.2918935908,-0.3037351069,-0.3219474535,-0.3395904503,-0.3514453852,-0.3640455761,-0.3756619315,-0.3867474295,-0.3955310343,-0.4047192767,-0.4160216342,-0.4321769547,-0.4531812957,-0.4728877017,-0.4957575505,-0.5180334036,-0.5340196255,-0.5517482672,-0.5681041339,-0.5829007810,-0.5974338386,-0.6157336542,-0.6362043322,-0.6537553155,-0.6678770867,-0.6820902035,-0.6965031823,-0.7127341843,-0.7250934119,-0.7366479561,-0.7496488567,-0.7641829447,-0.7778810172,-0.7918255049,-0.8092579514,-0.8260383657,-0.8401990108,-0.8559143374,-0.8714918868,-0.8908990041,-0.9077956267,-0.9173964323,-0.9206439289,-0.9222492334,-0.9184553268,-0.9139595356,-0.9074274532,-0.8964970450,-0.8843444286,-0.8696251001,-0.8556397103,-0.8413445170,-0.8279125746,-0.8168790756,-0.8032241663,-0.7897342475,-0.7752884573,-0.7579098356,-0.7381669469,-0.7167382240,-0.7003338235,-0.6819360644,-0.6648730151,-0.6494838344,-0.6298754646,-0.6061530381,-0.5764256036,-0.5482878981,-0.5233263157,-0.4922324316,-0.4620075974,-0.4323623356,-0.4031724404,-0.3748063419,-0.3468106933,-0.3174654025,-0.2863138301,-0.2507155883,-0.2171446050,-0.1827781865,-0.1462174735,-0.1110014467,-0.0796656004,-0.0540189593,-0.0347660894,-0.0162691524, 0.0056890905, 0.0319406290, 0.0574838122, 0.0820947313, 0.1060791278, 0.1276747708, 0.1499218759, 0.1762856019, 0.2020945707, 0.2309177368, 0.2593485077, 0.2879500094, 0.3142321815, 0.3356757342, 0.3597185620, 0.3864297581, 0.4164553976, 0.4486885120, 0.4824667405, 0.5150621627, 0.5442235877, 0.5702697588, 0.5935544377, 0.6132262223, 0.6283902859, 0.6452266622, 0.6629625979, 0.6835323278, 0.7069631246, 0.7287713841, 0.7498751200, 0.7671214355, 0.7820793004
0.8730565685, 0.8607363771, 0.8513258171, 0.8429045985, 0.8318377888, 0.8198895464, 0.8065821758, 0.7907995544, 0.7729563340, 0.7532426730, 0.7291339986, 0.7092379990, 0.6865336572, 0.6627388946, 0.6398176806, 0.6179075636, 0.5967022709, 0.5750009307, 0.5534791336, 0.5327413700, 0.5139903243, 0.4976989168, 0.4805663679, 0.4635356063, 0.4468309401, 0.4266865598, 0.4086658559, 0.3915847647, 0.3774724531, 0.3654955966, 0.3544775059, 0.3408203586, 0.3282236174, 0.3178710102, 0.3069047253, 0.2955028989, 0.2815460344, 0.2655502822, 0.2489923949, 0.2315857079, 0.2168600825, 0.2084633338, 0.1986246838, 0.1882002143, 0.1770091980, 0.1695445557, 0.1626718070, 0.1586349368, 0.1530063359, 0.1468892762, 0.1388042326, 0.1324284068, 0.1243790350, 0.1142641308, 0.1024481582, 0.0904875428, 0.0789259948, 0.0663286833, 0.0519406324, 0.0382788876, 0.0264114884, 0.0162743840, 0.0107980097, 0.0064964394, 0.0007052400,-0.0057101400,-0.0110134700,-0.0140326997,-0.0170074880,-0.0235812395,-0.0302388604,-0.0341136164,-0.0368013211,-0.0376471938,-0.0402794735,-0.0463149864,-0.0516297552,-0.0570272070,-0.0694269822,-0.0871361678,-0.1013271358,-0.1175378374,-0.1340761647,-0.1511210143,-0.1676885328,-0.1851833545,-0.2013983244,-0.2177792842,-0.2332460110,-0.2472049885,-0.2599188565,-0.2702315185,-0.2793716310,-0.2910725205,-0.3033460780,-0.3153365717,-0.3325545516,-0.3481107189,-0.3587833683,-0.3715446629,-0.3874768339,-0.3998015317,-0.4045892898,-0.4108685707,-0.4202006284,-0.4349076630,-0.4532696690,-0.4708774734,-0.4896840959,-0.5095789001,-0.5274975485,-0.5459399285,-0.5613317034,-0.5791276914,-0.5979226838,-0.6164422037,-0.6346675990,-0.6513946982,-0.6680138493,-0.6821474025,-0.6954363599,-0.7125117981,-0.7275219918,-0.7416517244,-0.7549288507,-0.7686728063,-0.7830081318,-0.7966545412,-0.8130759160,-0.8290367843,-0.8441272545,-0.8577047316,-0.8708834346,-0.8870199360,-0.8996800183,-0.9076956980,-0.9126691619,-0.9153991477,-0.9137461335,-0.9086337199,-0.9046063525,-0.8943594933,-0.8801919203,-0.8664477648,-0.8535852222,-0.8408731730,-0.8281129988,-0.8182300163,-0.8042896383,-0.7911544643,-0.7770001699,-0.7596572096,-0.7409384073,-0.7219725589,-0.7049419918,-0.6853442720,-0.6674110303,-0.6517440558,-0.6325351090,-0.6091013799,-0.5802272686,-0.5519771135,-0.5221220057,-0.4881404596,-0.4572474532,-0.4255979519,-0.3939136354,-0.3657436607,-0.3372249757,-0.3074588020,-0.2774738804,-0.2425105617,-0.2096786368,-0.1776825127,-0.1402119614,-0.1013058936,-0.0706818113,-0.0491465654,-0.0305921903,-0.0129783861, 0.0100372304, 0.0363659049, 0.0613810150, 0.0867124393, 0.1095219972, 0.1310978935, 0.1518803525, 0.1774264706, 0.2011677533, 0.2287090672, 0.2570278964, 0.2857255421, 0.3135478537, 0.3357457171, 0.3587907996, 0.3853780508, 0.4158274175, 0.4483075978, 0.4789824007, 0.5087197117, 0.5366524626, 0.5622590775, 0.5844825983, 0.6032270153, 0.6204217415, 0.6381675775, 0.6564323239, 0.6773609335, 0.6995296626, 0.7191437606, 0.7368458035, 0.7531517319, 0.7684033074
0.8658689745, 0.8520638999, 0.8395483737, 0.8292768055, 0.8198804667, 0.8091868972, 0.7992671625, 0.7864131697, 0.7683422738, 0.7481778821, 0.7241905334, 0.7040725992, 0.6829038698, 0.6589316981, 0.6369046602, 0.6133645243, 0.5912270962, 0.5716190169, 0.5501723009, 0.5296692758, 0.5109914750, 0.4958298727, 0.4831178559, 0.4646103059, 0.4452169350, 0.4246637192, 0.4030883648, 0.3872094008, 0.3746247922, 0.3617574642, 0.3494877206, 0.3352344016, 0.3206409217, 0.3080680786, 0.2959076208, 0.2843511551, 0.2692741508, 0.2533311111, 0.2386885585, 0.2236495241, 0.2122585739, 0.2039934431, 0.1932729240, 0.1829362589, 0.1726932493, 0.1652830986, 0.1592100699, 0.1535716468, 0.1476264130, 0.1431607954, 0.1347326554, 0.1273835592, 0.1214928141, 0.1132511832, 0.1021195138, 0.0887900550, 0.0762156771, 0.0630514538, 0.0485607631, 0.0326501559, 0.0192850211, 0.0107306570, 0.0044909221,-0.0013781653,-0.0083571136,-0.0117302774,-0.0164940794,-0.0212008919,-0.0265627174,-0.0343754258,-0.0404388613,-0.0436723242,-0.0476182434,-0.0482788217,-0.0515286540,-0.0566349745,-0.0623716967,-0.0680183588,-0.0783414314,-0.0965758270,-0.1139277150,-0.1311684312,-0.1502041842,-0.1663577967,-0.1797542221,-0.1924378987,-0.2087915870,-0.2262027199,-0.2425127632,-0.2592145595,-0.2704273818,-0.2787805232,-0.2883664485,-0.3016218605,-0.3160660714,-0.3288512601,-0.3422739888,-0.3553128180,-0.3653445040,-0.3763851797,-0.3914277822,-0.4047248381,-0.4119427643,-0.4191741999,-0.4267750268,-0.4383824671,-0.4550165440,-0.4718598506,-0.4876819178,-0.5060593328,-0.5246002444,-0.5424628510,-0.5575935830,-0.5767459872,-0.5982885350,-0.6171041523,-0.6334896215,-0.6494967523,-0.6667915243,-0.6817282803,-0.6964582185,-0.7103811700,-0.7264527314,-0.7422587273,-0.7575892814,-0.7707900970,-0.7864957339,-0.8020304396,-0.8184953886,-0.8346984062,-0.8488031056,-0.8618527492,-0.8757708851,-0.8881213502,-0.8948155749,-0.8991520613,-0.9048567874,-0.9066598967,-0.9055902689,-0.9010660260,-0.8973233045,-0.8874508584,-0.8733437787,-0.8621566318,-0.8507069408,-0.8383450599,-0.8249914587,-0.8144055827,-0.8045909755,-0.7911562180,-0.7786923816,-0.7614176138,-0.7412734664,-0.7241596568,-0.7064183029,-0.6865153942,-0.6669905050,-0.6516609967,-0.6334241226,-0.6110288437,-0.5862211523,-0.5564645349,-0.5217862011,-0.4861212077,-0.4524418938,-0.4184602774,-0.3855881393,-0.3558321923,-0.3289616070,-0.3005282402,-0.2684737493,-0.2342845620,-0.2010045621,-0.1691878978,-0.1328101223,-0.0963256991,-0.0664959873,-0.0439089107,-0.0246170960,-0.0044311981, 0.0171339620, 0.0378303497, 0.0614938854, 0.0874040270, 0.1109028550, 0.1318216570, 0.1534808822, 0.1779439023, 0.2012292596, 0.2255222012, 0.2533859107, 0.2813982215, 0.3084843576, 0.3324500910, 0.3546102936, 0.3815022910, 0.4115734171, 0.4431108273, 0.4734129508, 0.5020049938, 0.5298222348, 0.5561142883, 0.5775890307, 0.5948905800, 0.6131249846, 0.6293871927, 0.6476340298, 0.6689319816, 0.6913043692, 0.7098797875, 0.7228582471, 0.7385931787, 0.7561074306
0.8540564098, 0.8387816123, 0.8268710038, 0.8180668839, 0.8085309799, 0.8001072762, 0.7912953291, 0.7769562750, 0.7596639666, 0.7401336650, 0.7168929866, 0.6977198828, 0.6776944444, 0.6548126753, 0.6329831090, 0.6074752873, 0.5854287257, 0.5664690309, 0.5465956016, 0.5282799209, 0.5109481614, 0.4986542916, 0.4863906646, 0.4659882240, 0.4437263569, 0.4212652887, 0.4004483986, 0.3830780273, 0.3711109283, 0.3590317736, 0.3467239804, 0.3328259432, 0.3150919967, 0.2997132553, 0.2866312341, 0.2751924742, 0.2592140310, 0.2428059975, 0.2279722320, 0.2174111444, 0.2086361678, 0.1988081366, 0.1854694005, 0.1739984250, 0.1657371822, 0.1590227616, 0.1534589707, 0.1477647133, 0.1436441236, 0.1421232498, 0.1358916004, 0.1281227524, 0.1236534204, 0.1132023927, 0.0996632561, 0.0852701013, 0.0720430706, 0.0596145128, 0.0438864957, 0.0256264199, 0.0124781537, 0.0057207038,-0.0025240415,-0.0132059896,-0.0211626514,-0.0243018449,-0.0282442867,-0.0333453731,-0.0411752257,-0.0488346313,-0.0526944254,-0.0556705036,-0.0601851808,-0.0647944318,-0.0701312174,-0.0752165433,-0.0795714083,-0.0855618439,-0.0952428636,-0.1125956558,-0.1318040528,-0.1486406873,-0.1666369159,-0.1792092825,-0.1901785169,-0.2037873271,-0.2195971315,-0.2363767707,-0.2533048127,-0.2693470135,-0.2789735349,-0.2896301808,-0.3009049201,-0.3118578295,-0.3279786000,-0.3410363220,-0.3526985126,-0.3630495277,-0.3725309642,-0.3821314477,-0.3959530047,-0.4080186113,-0.4167538142,-0.4256425314,-0.4343222572,-0.4444393416,-0.4573921340,-0.4740557813,-0.4890565871,-0.5061027755,-0.5254392230,-0.5446873619,-0.5608177898,-0.5792783069,-0.5985950300,-0.6155212492,-0.6321130494,-0.6476823088,-0.6633587952,-0.6794136836,-0.6941346585,-0.7086907014,-0.7253850506,-0.7406864384,-0.7556885263,-0.7714868582,-0.7892577804,-0.8050714162,-0.8216464856,-0.8380198208,-0.8508081993,-0.8644890245,-0.8771193621,-0.8866825851,-0.8914949462,-0.8949369928,-0.8992756719,-0.8993106605,-0.8983282021,-0.8944331665,-0.8884481351,-0.8788128063,-0.8674121775,-0.8555989006,-0.8442812331,-0.8344234409,-0.8215061702,-0.8112544102,-0.8023593925,-0.7897458707,-0.7758783812,-0.7609721528,-0.7436135919,-0.7261485401,-0.7087015601,-0.6900632471,-0.6725586170,-0.6554479027,-0.6354798410,-0.6126822460,-0.5877637604,-0.5581117102,-0.5211433846,-0.4836832130,-0.4489232326,-0.4143634706,-0.3794587167,-0.3498095934,-0.3226230399,-0.2953492091,-0.2623042684,-0.2290639516,-0.1936250622,-0.1573182361,-0.1235149679,-0.0923662603,-0.0626008033,-0.0370401807,-0.0173617694, 0.0017071655, 0.0195004214, 0.0406462896, 0.0622564636, 0.0860005974, 0.1085320001, 0.1304302217, 0.1524368890, 0.1761939046, 0.1982168715, 0.2223951718, 0.2477193936, 0.2735326081, 0.3019444262, 0.3267949611, 0.3485091059, 0.3736028790, 0.4012251134, 0.4330549965, 0.4672271846, 0.4964480439, 0.5217554667, 0.5457751756, 0.5667584899, 0.5863613494, 0.6037619091, 0.6174986495, 0.6341415912, 0.6555949561, 0.6793865274, 0.6968004597, 0.7091429459, 0.7245465764, 0.7408420762
0.8369196007, 0.8252902415, 0.8157117675, 0.8091334995, 0.8013307756, 0.7935202827, 0.7826406292, 0.7669115536, 0.7496644946, 0.7296425663, 0.7074594465, 0.6876332417, 0.6685047879, 0.6464163573, 0.6257310996, 0.6006019481, 0.5805457024, 0.5604722602, 0.5426322679, 0.5271464260, 0.5104064615, 0.4989282912, 0.4853862518, 0.4666374738, 0.4431529037, 0.4189400452, 0.3993652756, 0.3822594500, 0.3659823542, 0.3516820236, 0.3407763487, 0.3289573849, 0.3115157611, 0.2934016649, 0.2785999445, 0.2659649820, 0.2517407796, 0.2371347038, 0.2214075216, 0.2107516176, 0.2006342792, 0.1889333749, 0.1762356341, 0.1667190823, 0.1584835669, 0.1509009072, 0.1450221300, 0.1411197219, 0.1375055517, 0.1377212446, 0.1367269687, 0.1320573442, 0.1241051834, 0.1106879734, 0.0940654530, 0.0803993648, 0.0660119185, 0.0522310909, 0.0361740631, 0.0189800309, 0.0046439121,-0.0052274143,-0.0133630392,-0.0245128727,-0.0347827241,-0.0421491094,-0.0464525952,-0.0489336002,-0.0572346571,-0.0653542951,-0.0677793667,-0.0709960581,-0.0776438506,-0.0830328047,-0.0916682897,-0.0978589862,-0.1006717239,-0.1070949058,-0.1187654214,-0.1317290766,-0.1482953379,-0.1652542174,-0.1826655474,-0.1958816957,-0.2042571417,-0.2179461375,-0.2343135596,-0.2508364675,-0.2678966430,-0.2801515978,-0.2903775164,-0.3015269972,-0.3129962166,-0.3256825938,-0.3418513128,-0.3545386059,-0.3651882582,-0.3723691736,-0.3800557524,-0.3894001478,-0.4031811581,-0.4132899867,-0.4229253103,-0.4316629787,-0.4391286052,-0.4491941868,-0.4603413016,-0.4744989812,-0.4906727055,-0.5091278395,-0.5276664842,-0.5468004770,-0.5644853182,-0.5801661509,-0.5978332335,-0.6144744067,-0.6296647666,-0.6466800049,-0.6624803607,-0.6789599606,-0.6929990008,-0.7060934271,-0.7207570583,-0.7372025389,-0.7523276878,-0.7704058106,-0.7903786353,-0.8072989921,-0.8248057762,-0.8389360383,-0.8490974963,-0.8604876824,-0.8719495656,-0.8812963592,-0.8874515573,-0.8930216592,-0.8950404610,-0.8930050866,-0.8901037769,-0.8866068278,-0.8804481175,-0.8704076813,-0.8606247316,-0.8480872784,-0.8363733373,-0.8275187972,-0.8165435946,-0.8054977414,-0.7977140595,-0.7881418732,-0.7775871038,-0.7648608925,-0.7478789745,-0.7304809219,-0.7151028711,-0.6965327143,-0.6791169079,-0.6604943395,-0.6384177379,-0.6126423643,-0.5845827130,-0.5557920228,-0.5209310381,-0.4841190200,-0.4491223560,-0.4133945363,-0.3773055272,-0.3456687230,-0.3187052583,-0.2928053271,-0.2618667822,-0.2253838101,-0.1891524991,-0.1527120165,-0.1174677179,-0.0884861925,-0.0591780944,-0.0325755617,-0.0111262186, 0.0080263244, 0.0225677250, 0.0424573323, 0.0625613928, 0.0836152600, 0.1063321413, 0.1276756261, 0.1507505040, 0.1742738103, 0.1966744717, 0.2194298669, 0.2445016438, 0.2696128701, 0.2954616009, 0.3196815394, 0.3431660920, 0.3643524677, 0.3892630632, 0.4227409626, 0.4549466849, 0.4820269346, 0.5072700443, 0.5292575790, 0.5500511203, 0.5718737371, 0.5897075163, 0.6030651972, 0.6202672656, 0.6409136423, 0.6623389795, 0.6785213254, 0.6942387449, 0.7080425580, 0.7206716084
0.8237816093, 0.8136497658, 0.8049818302, 0.7988510874, 0.7915312732, 0.7824845435, 0.7711126524, 0.7562823850, 0.7381020255, 0.7195275108, 0.6971166854, 0.6753460021, 0.6560494285, 0.6353526281, 0.6143308560, 0.5940723884, 0.5735964709, 0.5559564303, 0.5389473347, 0.5234234498, 0.5083402210, 0.4933111053, 0.4788284134, 0.4617860076, 0.4393686182, 0.4143464308, 0.3926193658, 0.3758064633, 0.3591507002, 0.3434957335, 0.3312745245, 0.3198447857, 0.3041955298, 0.2873234746, 0.2700712148, 0.2542308494, 0.2410202832, 0.2257262655, 0.2119983223, 0.2015861088, 0.1921981165, 0.1811104289, 0.1675026117, 0.1592681382, 0.1516437901, 0.1429977109, 0.1371689432, 0.1348468934, 0.1335600279, 0.1349347665, 0.1342115531, 0.1294964292, 0.1211946199, 0.1044279977, 0.0862742728, 0.0735140297, 0.0576443222, 0.0428123945, 0.0282094995, 0.0142197256,-0.0017890779,-0.0155990287,-0.0267541482,-0.0386503828,-0.0512082985,-0.0581091058,-0.0633582483,-0.0659002445,-0.0719942538,-0.0787292727,-0.0852667699,-0.0904450785,-0.0956793122,-0.1028447809,-0.1110095925,-0.1160654685,-0.1208443059,-0.1263317797,-0.1369819903,-0.1502890143,-0.1642750306,-0.1788445417,-0.1961625476,-0.2136516829,-0.2246958096,-0.2369674703,-0.2531172514,-0.2691970507,-0.2809806782,-0.2894833234,-0.3002224590,-0.3106990543,-0.3218847530,-0.3344362420,-0.3511849336,-0.3641075563,-0.3738674741,-0.3820112088,-0.3897439899,-0.4014725505,-0.4128333978,-0.4227359933,-0.4314533112,-0.4382040792,-0.4469057264,-0.4562926790,-0.4661785290,-0.4800028645,-0.4971016957,-0.5143205098,-0.5316536398,-0.5495050551,-0.5668843857,-0.5823305930,-0.5987868993,-0.6141637666,-0.6307949486,-0.6462494535,-0.6624267470,-0.6783807010,-0.6928362365,-0.7050982350,-0.7184814306,-0.7345383576,-0.7506782289,-0.7676749067,-0.7871766456,-0.8052474192,-0.8206008976,-0.8342627128,-0.8446000287,-0.8555954217,-0.8674460633,-0.8767607604,-0.8814379311,-0.8858192986,-0.8891489623,-0.8881146954,-0.8837600501,-0.8804187197,-0.8740389041,-0.8669619622,-0.8589013300,-0.8456351158,-0.8334450935,-0.8215852978,-0.8129389849,-0.8030617160,-0.7971898690,-0.7889445098,-0.7780640755,-0.7659319361,-0.7495444991,-0.7335767888,-0.7194205356,-0.7003664798,-0.6826310277,-0.6624736220,-0.6385991032,-0.6112180923,-0.5818674379,-0.5496628959,-0.5163035555,-0.4840382035,-0.4496354124,-0.4133693793,-0.3767483232,-0.3455980737,-0.3193663803,-0.2913539150,-0.2611882060,-0.2261066661,-0.1873342505,-0.1528522229,-0.1170902714,-0.0852546799,-0.0554441001,-0.0321295378,-0.0120804025, 0.0099542417, 0.0281524542, 0.0434906156, 0.0597576375, 0.0792359778, 0.1013075769, 0.1227323223, 0.1455292974, 0.1704925396, 0.1925834447, 0.2136384691, 0.2371601125, 0.2630895252, 0.2867203253, 0.3083407276, 0.3313081736, 0.3524219962, 0.3765031222, 0.4076603063, 0.4383781909, 0.4657887814, 0.4882226475, 0.5097155647, 0.5321731838, 0.5526224894, 0.5691913743, 0.5852146498, 0.6054760323, 0.6255312559, 0.6438248327, 0.6616932014, 0.6787964603, 0.6916949292, 0.7041706946
0.8149679893, 0.8031278754, 0.7944765834, 0.7881459343, 0.7801074119, 0.7701990309, 0.7585929707, 0.7443995351, 0.7274059049, 0.7086382197, 0.6870075066, 0.6662579259, 0.6450271541, 0.6237988421, 0.6056238107, 0.5854842298, 0.5660297633, 0.5509155222, 0.5352395544, 0.5173578712, 0.5001452225, 0.4853915948, 0.4708158349, 0.4546745513, 0.4330290955, 0.4068401980, 0.3821777177, 0.3653568137, 0.3498089940, 0.3323642953, 0.3193482157, 0.3071506433, 0.2938749604, 0.2771835400, 0.2599198132, 0.2447444426, 0.2300677221, 0.2157077481, 0.2031003085, 0.1906968141, 0.1806795872, 0.1695036431, 0.1567107477, 0.1463810797, 0.1393188459, 0.1345996560, 0.1294796002, 0.1263937071, 0.1287595664, 0.1312862410, 0.1294844308, 0.1230280257, 0.1115768880, 0.0955072711, 0.0791455906, 0.0641854113, 0.0483915625, 0.0320879795, 0.0185968945, 0.0058535362,-0.0107183110,-0.0265922596,-0.0404975106,-0.0528226946,-0.0647634838,-0.0740460402,-0.0802377205,-0.0836575006,-0.0879088096,-0.0938411431,-0.1027171387,-0.1083844619,-0.1146231890,-0.1233012207,-0.1293409896,-0.1345310187,-0.1413951600,-0.1473668608,-0.1549394985,-0.1680969432,-0.1816887487,-0.1963411402,-0.2152291042,-0.2329760894,-0.2469612380,-0.2574606050,-0.2710718563,-0.2835585004,-0.2936412881,-0.3031021840,-0.3114777055,-0.3212145920,-0.3315535612,-0.3458481875,-0.3615606879,-0.3728963814,-0.3820508665,-0.3927715696,-0.4028613210,-0.4135447800,-0.4256350256,-0.4366188189,-0.4435380675,-0.4487520338,-0.4558566970,-0.4650590776,-0.4743343396,-0.4865365864,-0.5024000135,-0.5170099209,-0.5331431979,-0.5502849014,-0.5671965789,-0.5829030020,-0.6004187866,-0.6181469451,-0.6340097424,-0.6480072843,-0.6626723408,-0.6777201106,-0.6909323485,-0.7030537045,-0.7151451797,-0.7301129109,-0.7477564457,-0.7654360983,-0.7816785430,-0.7983323880,-0.8126620118,-0.8267216377,-0.8370164345,-0.8501949742,-0.8637010515,-0.8701473945,-0.8722684649,-0.8737168239,-0.8785950077,-0.8825319160,-0.8791701744,-0.8754841819,-0.8692199851,-0.8669586548,-0.8600694293,-0.8466954875,-0.8346203793,-0.8210887982,-0.8112877015,-0.8024230582,-0.7972202496,-0.7879686113,-0.7782295432,-0.7662193405,-0.7511595815,-0.7359818395,-0.7214814052,-0.7033970278,-0.6854702907,-0.6636596490,-0.6372471133,-0.6091261068,-0.5812938531,-0.5488675598,-0.5141569799,-0.4832930322,-0.4495324784,-0.4154101348,-0.3821719539,-0.3495495178,-0.3227863846,-0.2942002170,-0.2599286330,-0.2247859335,-0.1875896225,-0.1512872734,-0.1173939778,-0.0840344472,-0.0559598041,-0.0352042414,-0.0159619370, 0.0059611821, 0.0259904816, 0.0420366767, 0.0581845907, 0.0768056131, 0.0968266484, 0.1159018566, 0.1387739330, 0.1626887606, 0.1841523095, 0.2055254894, 0.2258083492, 0.2490192671, 0.2720005849, 0.2944143589, 0.3168823538, 0.3407251001, 0.3669116268, 0.3945070201, 0.4222714167, 0.4489055683, 0.4726053817, 0.4929474120, 0.5134562418, 0.5321337649, 0.5517423865, 0.5714473562, 0.5912435668, 0.6111127326, 0.6312513931, 0.6482147667, 0.6620755623, 0.6759979396, 0.6888861117
0.8019418510, 0.7904601018, 0.7818330712, 0.7747698678, 0.7673157713, 0.7578404912, 0.7455829000, 0.7310334800, 0.7166010831, 0.7007333074, 0.6797247462, 0.6571789376, 0.6351978485, 0.6156846808, 0.5971301910, 0.5743215858, 0.5559568970, 0.5428551334, 0.5276874326, 0.5103596897, 0.4936170579, 0.4768960497, 0.4605254825, 0.4431677828, 0.4201790807, 0.3961832189, 0.3727593653, 0.3546240130, 0.3369630208, 0.3208817753, 0.3055554398, 0.2933220075, 0.2783904370, 0.2610340410, 0.2461060427, 0.2328151257, 0.2187196404, 0.2054921895, 0.1935520894, 0.1798976547, 0.1683301115, 0.1569246634, 0.1433270791, 0.1328139403, 0.1274198195, 0.1226260204, 0.1162627650, 0.1145070954, 0.1186388749, 0.1209300279, 0.1182618861, 0.1107042993, 0.0984575758, 0.0840581907, 0.0680571277, 0.0543553557, 0.0398558571, 0.0224144002, 0.0070893854,-0.0047227775,-0.0215472559,-0.0389029324,-0.0552006629,-0.0665937024,-0.0773182509,-0.0890220186,-0.0948001379,-0.0987137505,-0.1051341132,-0.1132319768,-0.1200724364,-0.1280129163,-0.1377724715,-0.1442184669,-0.1496946982,-0.1570012979,-0.1619810977,-0.1687043957,-0.1787530115,-0.1923742629,-0.2060530564,-0.2196214147,-0.2365091851,-0.2532418977,-0.2656256808,-0.2763446668,-0.2904713446,-0.3002623984,-0.3094364013,-0.3187883597,-0.3240594599,-0.3329499253,-0.3426573130,-0.3547537570,-0.3692334546,-0.3831763428,-0.3928229811,-0.4021035576,-0.4121205020,-0.4224105622,-0.4353461906,-0.4456822529,-0.4534607704,-0.4584183831,-0.4620790672,-0.4686929172,-0.4769081245,-0.4901845523,-0.5051269815,-0.5203972308,-0.5368979099,-0.5542236381,-0.5697045631,-0.5851352197,-0.6048664879,-0.6238402953,-0.6384391377,-0.6523601965,-0.6635701623,-0.6754210592,-0.6878423075,-0.6994347139,-0.7117040646,-0.7269159746,-0.7445816999,-0.7607784105,-0.7757959299,-0.7908026618,-0.8069241402,-0.8209892922,-0.8311962800,-0.8444779438,-0.8547050571,-0.8597602965,-0.8618516087,-0.8618755406,-0.8669464538,-0.8731598176,-0.8735592771,-0.8709473599,-0.8687002208,-0.8666985087,-0.8607624285,-0.8476858128,-0.8353262448,-0.8239657671,-0.8136741389,-0.8072522053,-0.8020135481,-0.7939408039,-0.7842984308,-0.7728624537,-0.7574406381,-0.7420333447,-0.7275309989,-0.7093836731,-0.6883549474,-0.6671005570,-0.6403373855,-0.6130676629,-0.5844307220,-0.5491590098,-0.5134124330,-0.4810654627,-0.4492128552,-0.4185343079,-0.3863081538,-0.3540536869,-0.3251792783,-0.2965326356,-0.2582268139,-0.2210043941,-0.1867843767,-0.1497778080,-0.1162235008,-0.0863200846,-0.0605257859,-0.0394959552,-0.0194850877,-0.0006525393, 0.0205878581, 0.0407532743, 0.0588575986, 0.0755065230, 0.0931067541, 0.1105056222, 0.1318894170, 0.1543213532, 0.1745762250, 0.1932844052, 0.2126013465, 0.2342550646, 0.2551261429, 0.2790414385, 0.3044808963, 0.3319030015, 0.3574974979, 0.3824758644, 0.4079893352, 0.4313457849, 0.4542211275, 0.4739968838, 0.4938102138, 0.5131520879, 0.5349690707, 0.5573075255, 0.5780713058, 0.5982098365, 0.6194027770, 0.6331003983, 0.6448046452, 0.6597519087, 0.6745213829
0.7870970575, 0.7772493813, 0.7672161360, 0.7589871097, 0.7517395585, 0.7439966115, 0.7329459394, 0.7199028078, 0.7060521543, 0.6906514483, 0.6720457990, 0.6500399179, 0.6278806793, 0.6081675064, 0.5880216382, 0.5670473434, 0.5481128833, 0.5308691537, 0.5142996532, 0.4991656201, 0.4836920642, 0.4644109084, 0.4458108316, 0.4269775178, 0.4051281271, 0.3837675690, 0.3619324496, 0.3412768476, 0.3235094279, 0.3082826369, 0.2938343309, 0.2785353591, 0.2600760572, 0.2438146538, 0.2305720944, 0.2181440713, 0.2036843765, 0.1919102362, 0.1798646618, 0.1646637223, 0.1537134756, 0.1433131301, 0.1300290252, 0.1192228230, 0.1121906347, 0.1068024706, 0.1002220460, 0.0990536604, 0.1019341151, 0.1035762844, 0.0987754282, 0.0934673336, 0.0827967517, 0.0701622478, 0.0585835724, 0.0453958155, 0.0322693512, 0.0173187638, 0.0007266073,-0.0136490115,-0.0301886242,-0.0483726142,-0.0646801016,-0.0770562653,-0.0891204030,-0.1009283245,-0.1081539487,-0.1164668327,-0.1264462629,-0.1337318901,-0.1418320267,-0.1496790196,-0.1584582193,-0.1652969442,-0.1702237310,-0.1777025364,-0.1855412528,-0.1935583029,-0.2047742479,-0.2195785402,-0.2329481492,-0.2449667259,-0.2590556010,-0.2720881672,-0.2843149927,-0.2965548166,-0.3076843891,-0.3179137182,-0.3270485453,-0.3322620497,-0.3354317196,-0.3424596578,-0.3515787928,-0.3636170973,-0.3766866866,-0.3885316883,-0.3993487392,-0.4070782715,-0.4165237551,-0.4282956823,-0.4409530940,-0.4493579963,-0.4597424306,-0.4647924502,-0.4673173003,-0.4720106027,-0.4794436417,-0.4943776034,-0.5097402108,-0.5250863902,-0.5421440383,-0.5604295658,-0.5751648472,-0.5900864725,-0.6082739093,-0.6270387275,-0.6425048403,-0.6560716637,-0.6662464239,-0.6754732270,-0.6869462661,-0.6980859482,-0.7108716966,-0.7257783786,-0.7424834486,-0.7551580433,-0.7694284730,-0.7838876476,-0.7995673397,-0.8167651931,-0.8276692026,-0.8375318470,-0.8436871817,-0.8466968183,-0.8499509900,-0.8521341188,-0.8559469914,-0.8626711157,-0.8670046868,-0.8660986404,-0.8659748166,-0.8655762250,-0.8587495819,-0.8447304607,-0.8345665268,-0.8263167304,-0.8184262156,-0.8156072288,-0.8124506683,-0.8043671397,-0.7934243713,-0.7792627609,-0.7661455442,-0.7529129788,-0.7367817673,-0.7185684933,-0.6945701864,-0.6698943091,-0.6443127563,-0.6158925447,-0.5834157198,-0.5485933730,-0.5155594816,-0.4831683358,-0.4521626534,-0.4199070683,-0.3877875013,-0.3555371941,-0.3272899523,-0.2966608838,-0.2602003412,-0.2235325673,-0.1868087042,-0.1486607332,-0.1173399700,-0.0898333362,-0.0640120237,-0.0420716858,-0.0234459597,-0.0050366892, 0.0162231303, 0.0362131442, 0.0552602558, 0.0724501092, 0.0894903596, 0.1066610430, 0.1255733777, 0.1439924678, 0.1637617513, 0.1841915372, 0.2035479997, 0.2212344707, 0.2424257060, 0.2658411664, 0.2933919965, 0.3195828671, 0.3438436796, 0.3685442142, 0.3923861965, 0.4153441759, 0.4378816662, 0.4595704121, 0.4767340037, 0.4986258516, 0.5231635975, 0.5453448675, 0.5645292350, 0.5835260101, 0.6035356086, 0.6159956411, 0.6266752052, 0.6429197808, 0.6577362501
0.7728365190, 0.7618695694, 0.7517834796, 0.7407682556, 0.7341886885, 0.7286068233, 0.7214553659, 0.7096769182, 0.6939831549, 0.6767553088, 0.6599150011, 0.6391289165, 0.6187435305, 0.5984774112, 0.5787263056, 0.5581702184, 0.5410908233, 0.5210564701, 0.5023537082, 0.4854054655, 0.4658301412, 0.4479624730, 0.4324412291, 0.4130734399, 0.3898218508, 0.3686460761, 0.3476941917, 0.3242253807, 0.3064383518, 0.2939231531, 0.2809100671, 0.2643021558, 0.2443370904, 0.2261789827, 0.2109145137, 0.1986679923, 0.1856657049, 0.1756870719, 0.1626239396, 0.1492525802, 0.1386711058, 0.1268153782, 0.1132288503, 0.1013684953, 0.0944526461, 0.0910219034, 0.0872612339, 0.0850478400, 0.0830503010, 0.0821912317, 0.0794866463, 0.0752290299, 0.0681681290, 0.0596886525, 0.0490415023, 0.0377877408, 0.0256662236, 0.0113877102,-0.0048486755,-0.0212866546,-0.0383201215,-0.0566178687,-0.0715795722,-0.0841619713,-0.0997831115,-0.1131938174,-0.1248281827,-0.1351115692,-0.1462749243,-0.1558036506,-0.1645205342,-0.1722630230,-0.1794478059,-0.1864297064,-0.1913086941,-0.1998477829,-0.2114268945,-0.2210388866,-0.2309681993,-0.2450283846,-0.2575037491,-0.2689450843,-0.2824034094,-0.2932898705,-0.3026730464,-0.3164406085,-0.3262637410,-0.3332984737,-0.3401667223,-0.3422474186,-0.3448860537,-0.3491941987,-0.3589662609,-0.3710125725,-0.3834721663,-0.3934032699,-0.4013206974,-0.4102207319,-0.4192127731,-0.4316953064,-0.4439191929,-0.4549714373,-0.4636737770,-0.4684869134,-0.4717509841,-0.4760302106,-0.4815069671,-0.4937645862,-0.5114474370,-0.5274676989,-0.5468396987,-0.5644601345,-0.5792826208,-0.5948789161,-0.6120688170,-0.6289071859,-0.6443068627,-0.6575636408,-0.6667056490,-0.6782409626,-0.6894266812,-0.7004763925,-0.7141357423,-0.7290892192,-0.7424306557,-0.7526183811,-0.7655882303,-0.7793052844,-0.7944549632,-0.8091487445,-0.8194340593,-0.8296439413,-0.8351303918,-0.8372797470,-0.8387024887,-0.8406516755,-0.8426891201,-0.8492633370,-0.8587777065,-0.8624504538,-0.8617095246,-0.8590351190,-0.8524250307,-0.8418103465,-0.8357597621,-0.8307451283,-0.8262585009,-0.8232901066,-0.8206291267,-0.8146730345,-0.8018081189,-0.7857243824,-0.7729053537,-0.7619867063,-0.7469402364,-0.7283317710,-0.7039365434,-0.6762287778,-0.6458674203,-0.6158258653,-0.5828926717,-0.5489653613,-0.5166519438,-0.4865788419,-0.4535563366,-0.4190328832,-0.3886585457,-0.3603565183,-0.3302976505,-0.2969798581,-0.2641049431,-0.2303511311,-0.1913012364,-0.1504626257,-0.1205137752,-0.0933219298,-0.0672138535,-0.0444730322,-0.0257009508,-0.0074963644, 0.0120032349, 0.0300511654, 0.0504262393, 0.0672659529, 0.0842603614, 0.1015465119, 0.1182853646, 0.1340752156, 0.1525634460, 0.1732535350, 0.1924366046, 0.2093001675, 0.2295593541, 0.2556540567, 0.2807982898, 0.3053409538, 0.3277482459, 0.3511028123, 0.3778700705, 0.4046755378, 0.4257800276, 0.4457847341, 0.4633224016, 0.4874603859, 0.5116349017, 0.5323139190, 0.5498341657, 0.5680210115, 0.5863831681, 0.5989372636, 0.6086467984, 0.6220348463, 0.6365212759
0.7569950802, 0.7474864438, 0.7378613123, 0.7278423957, 0.7218611679, 0.7163504324, 0.7097204321, 0.6984214616, 0.6805668045, 0.6620642991, 0.6450848300, 0.6250540457, 0.6066713371, 0.5876397492, 0.5676873754, 0.5492549531, 0.5323274216, 0.5120445409, 0.4923669701, 0.4730447533, 0.4528491790, 0.4347081099, 0.4166480614, 0.3965907102, 0.3744787993, 0.3545627609, 0.3320608740, 0.3090334506, 0.2875516991, 0.2733011720, 0.2615526394, 0.2461350076, 0.2264131628, 0.2078635224, 0.1922899444, 0.1804150629, 0.1684618036, 0.1563428513, 0.1457097322, 0.1349148247, 0.1239497393, 0.1105590157, 0.0972199787, 0.0861268216, 0.0792500670, 0.0739179052, 0.0710916086, 0.0689981552, 0.0645244968, 0.0616453974, 0.0598226348, 0.0559540615, 0.0528071013, 0.0473316902, 0.0397243007, 0.0308259654, 0.0199563795, 0.0049925954,-0.0112176557,-0.0274012773,-0.0460203921,-0.0628618697,-0.0793986479,-0.0939984006,-0.1092935035,-0.1266754346,-0.1414750033,-0.1537799206,-0.1656963804,-0.1766287060,-0.1840840346,-0.1905199918,-0.1968227815,-0.2051967456,-0.2148961791,-0.2270314001,-0.2360724934,-0.2453844550,-0.2557808225,-0.2701154079,-0.2806424182,-0.2909018082,-0.3046437240,-0.3150323174,-0.3242306697,-0.3347612715,-0.3441226510,-0.3486075505,-0.3512155616,-0.3494466272,-0.3510968252,-0.3536639161,-0.3621112784,-0.3737246343,-0.3847644413,-0.3948609571,-0.4020676330,-0.4120231027,-0.4225423650,-0.4351218712,-0.4487180783,-0.4610987765,-0.4681804988,-0.4730552871,-0.4779778597,-0.4835171913,-0.4884928889,-0.4975634218,-0.5129701615,-0.5303692379,-0.5496091167,-0.5676901236,-0.5836285406,-0.5978962679,-0.6118755530,-0.6281900794,-0.6441507534,-0.6569299877,-0.6663860835,-0.6785422837,-0.6922711736,-0.7041399859,-0.7164552625,-0.7303664369,-0.7437729496,-0.7543784742,-0.7650764654,-0.7772908923,-0.7894083216,-0.8026044479,-0.8137166369,-0.8205478381,-0.8233901062,-0.8269295264,-0.8285954584,-0.8329118067,-0.8344448102,-0.8394120897,-0.8495980849,-0.8552062688,-0.8541842748,-0.8506717380,-0.8422551034,-0.8374695164,-0.8363757960,-0.8357554805,-0.8346129848,-0.8324865137,-0.8278277985,-0.8200806544,-0.8108193843,-0.7967164905,-0.7816927879,-0.7662819411,-0.7501469435,-0.7323277053,-0.7105492231,-0.6800641747,-0.6471640053,-0.6134590539,-0.5802484493,-0.5471271939,-0.5156792744,-0.4846904104,-0.4503977169,-0.4183083100,-0.3926858963,-0.3644822765,-0.3326595890,-0.2992671806,-0.2687596617,-0.2364674628,-0.1987835053,-0.1599452691,-0.1261636722,-0.0967890063,-0.0717093244,-0.0472058492,-0.0245021280,-0.0059976436, 0.0109199763, 0.0280310997, 0.0459395402, 0.0622206944, 0.0787964330, 0.0945609743, 0.1088998665, 0.1265932015, 0.1444506614, 0.1599992113, 0.1798421838, 0.1987665539, 0.2196223801, 0.2417003022, 0.2665999109, 0.2917289477, 0.3132234013, 0.3366663050, 0.3640928582, 0.3902203325, 0.4116401216, 0.4306007819, 0.4500334746, 0.4737721070, 0.4976812914, 0.5201283788, 0.5360855512, 0.5532791883, 0.5700700327, 0.5819374442, 0.5907374545, 0.6007468033, 0.6136641734
0.7440908589, 0.7362401266, 0.7270878013, 0.7180982831, 0.7087051585, 0.7029758642, 0.6950105812, 0.6838912145, 0.6673014854, 0.6499705834, 0.6307520135, 0.6107643158, 0.5915799680, 0.5725938249, 0.5540503576, 0.5368728029, 0.5184139352, 0.4997331008, 0.4821474843, 0.4624706432, 0.4407697950, 0.4211541428, 0.4040809128, 0.3848448774, 0.3637035412, 0.3419887562, 0.3186187557, 0.2926048075, 0.2708779913, 0.2529651781, 0.2411482753, 0.2259506128, 0.2088955179, 0.1909528725, 0.1731760640, 0.1605297154, 0.1492381266, 0.1368305872, 0.1272052668, 0.1160190978, 0.1039815924, 0.0911921041, 0.0803802904, 0.0703051900, 0.0608168664, 0.0564672155, 0.0532857286, 0.0511119616, 0.0484685696, 0.0468367753, 0.0441390990, 0.0386588579, 0.0364532932, 0.0336562531, 0.0284172825, 0.0210069949, 0.0121339354,-0.0003764506,-0.0164946003,-0.0340955605,-0.0532421710,-0.0706173109,-0.0892802395,-0.1066940576,-0.1233828238,-0.1408642332,-0.1593360612,-0.1739889657,-0.1831379255,-0.1940086246,-0.2043578147,-0.2114767713,-0.2177615889,-0.2256189284,-0.2376833680,-0.2507328158,-0.2599317268,-0.2709406743,-0.2830462832,-0.2943016460,-0.3025967337,-0.3119779043,-0.3226989215,-0.3319514388,-0.3434517004,-0.3520228147,-0.3603073432,-0.3639286278,-0.3595789785,-0.3563140585,-0.3565870975,-0.3601893695,-0.3664286081,-0.3745474618,-0.3842010694,-0.3932896086,-0.4015979718,-0.4134395322,-0.4262490872,-0.4394881981,-0.4532658751,-0.4673243986,-0.4749400376,-0.4809161130,-0.4871718898,-0.4912222061,-0.4984303177,-0.5080525901,-0.5196415730,-0.5353200355,-0.5529585582,-0.5700857768,-0.5863967735,-0.6007424796,-0.6129858811,-0.6273020870,-0.6415526792,-0.6540794311,-0.6665327307,-0.6796823629,-0.6947477410,-0.7087140968,-0.7194845798,-0.7314034918,-0.7438880309,-0.7561863653,-0.7666276929,-0.7766039347,-0.7854063968,-0.7956900441,-0.8056631685,-0.8117808342,-0.8143927965,-0.8162344535,-0.8192060706,-0.8244452806,-0.8267716195,-0.8305237857,-0.8369639032,-0.8410103151,-0.8422581842,-0.8420342490,-0.8364563833,-0.8344091632,-0.8347405780,-0.8355961171,-0.8364068092,-0.8361771534,-0.8329827095,-0.8263860420,-0.8156062082,-0.8020357417,-0.7878749881,-0.7693291547,-0.7506158728,-0.7302922433,-0.7064029407,-0.6769625755,-0.6453428812,-0.6096796462,-0.5758071727,-0.5431197855,-0.5139352558,-0.4845699902,-0.4528669733,-0.4239337233,-0.3962988945,-0.3686163644,-0.3369795312,-0.3044943259,-0.2747668473,-0.2412463634,-0.2056641417,-0.1699817603,-0.1351171241,-0.1042055727,-0.0771720211,-0.0518120281,-0.0286866825,-0.0071924757, 0.0098054785, 0.0262778655, 0.0412949559, 0.0570776614, 0.0727247182, 0.0864237780, 0.1002725582, 0.1173707115, 0.1347837463, 0.1487803127, 0.1660964025, 0.1857959392, 0.2066167278, 0.2291757239, 0.2533690718, 0.2767253368, 0.2996965994, 0.3235460751, 0.3481965935, 0.3715876379, 0.3949510995, 0.4165294918, 0.4373992318, 0.4610214896, 0.4832629045, 0.5054064889, 0.5249134202, 0.5414804863, 0.5540342938, 0.5621609581, 0.5715236824, 0.5826001710, 0.5923446595
0.7294745233, 0.7227003970, 0.7150249468, 0.7066832467, 0.6972292503, 0.6900180425, 0.6808193739, 0.6691973144, 0.6533597785, 0.6356665086, 0.6159756124, 0.5952557299, 0.5746240367, 0.5547232067, 0.5362752509, 0.5178122041, 0.5013172778, 0.4855892714, 0.4679237843, 0.4480245903, 0.4257742830, 0.4082248723, 0.3928292243, 0.3751511446, 0.3539139747, 0.3288896157, 0.3031604136, 0.2762272558, 0.2528613007, 0.2328901148, 0.2203626593, 0.2082230729, 0.1919667160, 0.1742378254, 0.1576119160, 0.1442713746, 0.1309063552, 0.1180118949, 0.1072000044, 0.0952489668, 0.0840106698, 0.0721978479, 0.0600825499, 0.0506250797, 0.0448958805, 0.0399466990, 0.0369106879, 0.0363712018, 0.0347742214, 0.0329324570, 0.0300908681, 0.0260474715, 0.0246237680, 0.0220337965, 0.0163993915, 0.0107341785, 0.0023178958,-0.0083375667,-0.0243968048,-0.0429986965,-0.0603772422,-0.0798741436,-0.0986325189,-0.1182135405,-0.1390009027,-0.1572869195,-0.1759022168,-0.1915252355,-0.2016942288,-0.2110082487,-0.2259576383,-0.2362015308,-0.2428642748,-0.2486256655,-0.2592068963,-0.2711255018,-0.2817739996,-0.2954711365,-0.3091685321,-0.3163609638,-0.3215799839,-0.3295469675,-0.3364441563,-0.3451517241,-0.3568934452,-0.3652599739,-0.3726137115,-0.3759137672,-0.3719540532,-0.3683186136,-0.3660036178,-0.3685111239,-0.3741522938,-0.3806311601,-0.3878356376,-0.3955641920,-0.4055452795,-0.4174182070,-0.4296747759,-0.4448402648,-0.4614869008,-0.4753246652,-0.4841086039,-0.4900034929,-0.4967831443,-0.5017377118,-0.5117705469,-0.5217524569,-0.5313533417,-0.5465048563,-0.5606397743,-0.5753740499,-0.5913111490,-0.6033504790,-0.6141202736,-0.6279013688,-0.6412136420,-0.6554820747,-0.6690381101,-0.6828831004,-0.6963331136,-0.7110587335,-0.7231781622,-0.7334196343,-0.7453227466,-0.7587969736,-0.7661365231,-0.7737422473,-0.7808007276,-0.7903836607,-0.7966451122,-0.8032768039,-0.8061808248,-0.8048499883,-0.8062719415,-0.8104830179,-0.8129511366,-0.8151054764,-0.8206733456,-0.8265207021,-0.8305599377,-0.8333429613,-0.8313306842,-0.8294745975,-0.8281132546,-0.8280439293,-0.8295846417,-0.8336226572,-0.8367483695,-0.8324697590,-0.8192335703,-0.8038497540,-0.7882080513,-0.7692102227,-0.7484324788,-0.7253940908,-0.6975327716,-0.6699555058,-0.6404693270,-0.6066092247,-0.5743623889,-0.5445783290,-0.5161594580,-0.4884796439,-0.4581480762,-0.4290175758,-0.4019850191,-0.3759611858,-0.3462492753,-0.3134702594,-0.2811064291,-0.2461483377,-0.2117575780,-0.1784032588,-0.1456681521,-0.1153734631,-0.0881438465,-0.0629215777,-0.0393269435,-0.0176441699, 0.0026656466, 0.0202323216, 0.0356141054, 0.0498107438, 0.0650844699, 0.0802755949, 0.0931357684, 0.1087059764, 0.1261564552, 0.1423447531, 0.1581840639, 0.1783542650, 0.1987423186, 0.2197462412, 0.2404512691, 0.2612117625, 0.2869012455, 0.3104304202, 0.3316933537, 0.3550153250, 0.3781939293, 0.4020502530, 0.4239528819, 0.4449975566, 0.4687516711, 0.4898602114, 0.5115054391, 0.5259922286, 0.5357850499, 0.5424675654, 0.5530705087, 0.5654916970, 0.5762652068
0.7096929291, 0.7056556987, 0.6999635912, 0.6921801213, 0.6823646837, 0.6755540468, 0.6673615021, 0.6545268606, 0.6387058969, 0.6203049179, 0.5989125996, 0.5777998282, 0.5577034687, 0.5371790816, 0.5186959800, 0.5010790289, 0.4832113989, 0.4671824301, 0.4515489932, 0.4330090912, 0.4124232135, 0.3944383845, 0.3790901456, 0.3618987336, 0.3409879951, 0.3138484161, 0.2869639839, 0.2608565653, 0.2345286346, 0.2131452516, 0.1995176584, 0.1887533251, 0.1745801766, 0.1588680109, 0.1442509357, 0.1297437490, 0.1170786812, 0.1024533592, 0.0867608487, 0.0752188197, 0.0666641762, 0.0547126705, 0.0420143527, 0.0334162289, 0.0286672402, 0.0241753603, 0.0223481168, 0.0230304880, 0.0232827027, 0.0205292889, 0.0178481061, 0.0135675538, 0.0132945417, 0.0108418210, 0.0044486714,-0.0014121056,-0.0094564191,-0.0201820707,-0.0358736117,-0.0543520314,-0.0720283700,-0.0921319799,-0.1132395444,-0.1348886482,-0.1562061684,-0.1760979389,-0.1945382446,-0.2086581120,-0.2209164103,-0.2340043037,-0.2487999043,-0.2604738367,-0.2685342024,-0.2724094656,-0.2815821191,-0.2927373941,-0.3042881077,-0.3182416733,-0.3294927862,-0.3368819457,-0.3415340708,-0.3479351983,-0.3536022543,-0.3601783546,-0.3702017995,-0.3785340582,-0.3816563830,-0.3825384239,-0.3812814661,-0.3785663452,-0.3770586021,-0.3801224846,-0.3852878925,-0.3914795320,-0.3959321332,-0.4017621202,-0.4095653935,-0.4198020359,-0.4344935080,-0.4532427471,-0.4703101903,-0.4842369473,-0.4937198424,-0.5025641665,-0.5095042587,-0.5173482001,-0.5290792937,-0.5401228856,-0.5479441796,-0.5581427743,-0.5684210580,-0.5797463664,-0.5945520137,-0.6056688730,-0.6165274540,-0.6305292953,-0.6460552586,-0.6598063144,-0.6737176017,-0.6890191440,-0.7026741287,-0.7153641619,-0.7267421904,-0.7358171083,-0.7465574103,-0.7596057939,-0.7649814362,-0.7712357668,-0.7772307924,-0.7851107136,-0.7870901290,-0.7894693604,-0.7902657899,-0.7887562833,-0.7894374164,-0.7921710008,-0.7948264508,-0.7975819858,-0.8042736195,-0.8133454312,-0.8202064114,-0.8229706409,-0.8219114198,-0.8203561173,-0.8202242857,-0.8222619951,-0.8246499213,-0.8324373437,-0.8379582211,-0.8344980898,-0.8240790035,-0.8098775657,-0.7900804764,-0.7680059100,-0.7455392341,-0.7208893762,-0.6927441435,-0.6644189576,-0.6336557744,-0.6026334662,-0.5747329217,-0.5476948978,-0.5192419426,-0.4923284950,-0.4625758081,-0.4336689289,-0.4064113746,-0.3823533650,-0.3544631545,-0.3223451334,-0.2883175089,-0.2527101717,-0.2189101241,-0.1875406662,-0.1564327735,-0.1261762922,-0.0998981921,-0.0743945502,-0.0520817459,-0.0284531048,-0.0064060179, 0.0106870577, 0.0268879711, 0.0440448122, 0.0597899590, 0.0743935819, 0.0870028604, 0.1053375304, 0.1202224866, 0.1364543748, 0.1529583046, 0.1733018501, 0.1939364202, 0.2131819348, 0.2313874712, 0.2506804210, 0.2729554216, 0.2956462172, 0.3178939710, 0.3400930432, 0.3630132909, 0.3881376515, 0.4096880809, 0.4308595772, 0.4505666822, 0.4708592032, 0.4914820468, 0.5046259181, 0.5157087901, 0.5248317551, 0.5346228443, 0.5475988456, 0.5566738851
